0.560208 0.458745 -0.094470 0.500000 0.500000 0.000000
-0.353318 -0.550607 -0.205628 0.000000 0.000000 1.000000
0.643723 -0.498980 -0.194333 0.500000 0.500000 0.000000
-0.376213 -0.550607 0.134138 0.000000 0.000000 1.000000
-0.444197 0.368989 -0.204220 0.300000 0.600000 0.000000
0.601478 0.380558 0.301354 0.500000 0.000000 0.500000
0.128344 -0.520688 0.192803 0.000000 0.000000 1.000000
0.454643 -0.326107 0.421027 0.600000 0.000000 0.300000
-0.540415 0.224379 0.336429 0.600000 0.300000 0.000000
-0.554587 0.218278 0.279693 1.000000 0.000000 0.000000
-0.540415 0.250034 0.062563 0.600000 0.300000 0.000000
0.216992 -0.495570 0.125147 0.600000 0.000000 0.300000
0.499151 -0.520688 -0.016525 0.000000 0.000000 1.000000
0.610655 0.281211 0.153944 0.300000 0.000000 0.600000
0.248567 0.428826 0.000848 0.500000 0.500000 0.000000
-0.621580 0.488663 0.318806 0.500000 0.500000 0.000000
0.610655 -0.490297 -0.138739 0.300000 0.000000 0.600000
-0.324551 0.488663 0.233259 0.500000 0.500000 0.000000
-0.272466 0.458745 0.340821 0.500000 0.500000 0.000000
0.580737 -0.385930 -0.343097 0.300000 0.000000 0.600000
-0.165758 0.368989 0.403908 0.300000 0.600000 0.000000
0.246911 -0.409101 0.171989 0.600000 0.000000 0.300000
-0.540415 -0.381114 0.382679 0.600000 0.300000 0.000000
0.580737 0.075064 0.033101 0.300000 0.000000 0.600000
0.246911 -0.464853 -0.287671 0.600000 0.000000 0.300000
0.574438 0.382954 0.278745 0.500000 0.000000 0.500000
0.349179 -0.352143 -0.369448 0.600000 0.000000 0.300000
-0.374174 0.032255 -0.369448 0.600000 0.000000 0.300000
0.337512 -0.550607 -0.324654 0.000000 0.000000 1.000000
0.246911 0.294091 0.056559 0.600000 0.000000 0.300000
0.580737 -0.520255 -0.353614 0.300000 0.000000 0.600000
0.014119 -0.520688 0.081654 0.000000 0.000000 1.000000
0.056928 0.428826 -0.004499 0.500000 0.500000 0.000000
-0.510889 0.458745 -0.328165 0.500000 0.500000 0.000000
0.154368 -0.550607 -0.265324 0.000000 0.000000 1.000000
0.094118 0.458745 0.303158 0.500000 0.500000 0.000000
-0.570333 -0.331632 -0.068595 0.600000 0.300000 0.000000
0.581943 -0.521894 -0.063889 0.000000 0.000000 1.000000
-0.516772 0.339071 -0.338190 0.300000 0.600000 0.000000
-0.444369 0.488663 -0.280711 0.500000 0.500000 0.000000
-0.493595 0.339071 0.172469 0.300000 0.600000 0.000000
0.320397 0.306822 0.421027 0.600000 0.000000 0.300000
-0.589262 0.458745 0.379653 0.500000 0.500000 0.000000
-0.566170 0.428826 -0.076562 0.500000 0.500000 0.000000
-0.540415 0.041172 -0.147740 0.600000 0.300000 0.000000
0.539166 0.263389 -0.399366 0.600000 0.000000 0.300000
-0.108443 -0.308675 -0.369448 0.600000 0.300000 0.000000
0.585782 -0.550607 -0.145582 0.000000 0.000000 1.000000
-0.540415 -0.186280 -0.285436 0.600000 0.300000 0.000000
-0.603401 0.394837 0.279969 1.000000 0.000000 0.000000
-0.139486 -0.550607 -0.002547 0.000000 0.000000 1.000000
0.389579 -0.520688 -0.000337 0.000000 0.000000 1.000000
-0.176670 0.276866 0.325572 0.800000 0.200000 0.500000
0.610655 0.070681 0.052229 0.300000 0.000000 0.600000
-0.176670 -0.040665 -0.027401 0.800000 0.200000 0.500000
0.580737 0.153320 0.337480 0.300000 0.000000 0.600000
-0.487066 -0.520688 -0.049940 0.000000 0.000000 1.000000
0.177683 0.368989 0.210285 0.300000 0.600000 0.000000
0.245788 0.368989 0.027081 0.300000 0.600000 0.000000
0.643723 0.357849 -0.226876 0.500000 0.500000 0.000000
-0.182308 -0.550607 0.321236 0.000000 0.000000 1.000000
-0.570333 -0.536506 -0.009198 0.600000 0.300000 0.000000
-0.383398 -0.520688 -0.198483 0.000000 0.000000 1.000000
-0.634486 0.428826 -0.261171 0.500000 0.500000 0.000000
-0.391960 0.339071 -0.188122 0.300000 0.600000 0.000000
0.496553 0.458745 0.361706 0.500000 0.500000 0.000000
-0.176670 0.075941 0.153772 0.800000 0.200000 0.500000
-0.206589 0.207278 0.123334 0.800000 0.200000 0.500000
0.418171 0.458745 -0.359906 0.500000 0.500000 0.000000
-0.531697 0.488663 -0.354548 0.500000 0.500000 0.000000
-0.141289 -0.326895 -0.399366 0.600000 0.300000 0.000000
-0.487645 0.458745 0.403716 0.500000 0.500000 0.000000
-0.206589 -0.351009 0.184079 0.800000 0.200000 0.500000
0.547167 -0.520688 0.084948 0.000000 0.000000 1.000000
0.246911 0.076656 -0.241664 0.600000 0.000000 0.300000
-0.176670 -0.125072 0.334481 0.800000 0.200000 0.500000
-0.540415 0.173887 0.008189 0.600000 0.300000 0.000000
-0.540415 0.203559 -0.095368 0.600000 0.300000 0.000000
0.163516 -0.546222 0.421027 0.000000 0.000000 1.000000
-0.206731 0.273188 -0.399366 0.600000 0.000000 0.300000
0.216992 0.040641 0.041829 0.600000 0.000000 0.300000
0.081811 -0.520688 0.028971 0.000000 0.000000 1.000000
-0.434086 0.150080 -0.369448 0.600000 0.000000 0.300000
0.223835 -0.291444 -0.399366 0.600000 0.300000 0.000000
-0.540415 -0.052906 -0.049257 0.600000 0.300000 0.000000
-0.176670 0.335656 -0.119530 0.800000 0.200000 0.500000
0.048499 -0.346001 -0.399366 0.600000 0.300000 0.000000
-0.176670 0.127360 -0.369201 0.800000 0.200000 0.500000
0.485669 0.458745 -0.377025 0.500000 0.500000 0.000000
0.610655 0.086933 0.315372 0.300000 0.000000 0.600000
0.574438 -0.591439 -0.209505 0.500000 0.500000 0.000000
-0.514633 0.309862 0.421027 0.300000 0.000000 0.600000
-0.306470 0.368989 0.268376 0.300000 0.600000 0.000000
0.381341 -0.550607 0.047719 0.000000 0.000000 1.000000
0.216992 0.179332 0.124967 0.600000 0.000000 0.300000
-0.293911 0.458745 -0.198497 0.500000 0.500000 0.000000
0.246911 -0.336307 -0.298210 0.600000 0.000000 0.300000
0.178970 0.368989 0.017717 0.300000 0.600000 0.000000
-0.528166 0.339071 0.224762 0.300000 0.600000 0.000000
0.187211 0.368989 -0.318461 0.300000 0.600000 0.000000
-0.550985 -0.668821 0.301354 1.000000 0.000000 0.000000
-0.055411 0.488663 -0.189626 0.500000 0.500000 0.000000
-0.192453 0.458745 -0.208546 0.500000 0.500000 0.000000
-0.112590 -0.520688 0.033333 0.000000 0.000000 1.000000
-0.476294 -0.040078 -0.369448 0.600000 0.000000 0.300000
0.246911 0.020290 0.266145 0.600000 0.000000 0.300000
0.289734 -0.340704 0.421027 0.600000 0.000000 0.300000
0.081439 0.488663 0.367553 0.500000 0.500000 0.000000
0.310532 -0.228197 -0.369448 0.600000 0.000000 0.300000
-0.566796 -0.654088 0.232069 1.000000 0.000000 0.000000
0.460193 0.339071 -0.173070 0.300000 0.600000 0.000000
0.198410 -0.122952 -0.369448 0.600000 0.300000 0.000000
0.246911 -0.333688 -0.018417 0.600000 0.000000 0.300000
-0.206589 -0.178215 0.331195 0.800000 0.200000 0.500000
0.217536 0.348519 0.349370 0.600000 0.000000 0.300000
-0.206589 0.286893 -0.091278 0.800000 0.200000 0.500000
0.369669 0.368989 0.365261 0.300000 0.600000 0.000000
0.260824 0.368989 -0.120220 0.300000 0.600000 0.000000
0.380203 -0.182910 -0.399366 0.600000 0.000000 0.300000
0.492632 0.428826 -0.343105 0.500000 0.500000 0.000000
0.121434 0.458745 0.326359 0.500000 0.500000 0.000000
-0.540415 0.166339 -0.048991 0.600000 0.300000 0.000000
-0.206589 0.174425 0.028603 0.800000 0.200000 0.500000
-0.206589 -0.522576 -0.195187 0.000000 0.000000 1.000000
-0.506876 0.275446 -0.399366 0.600000 0.000000 0.300000
0.370898 0.488663 -0.181524 0.500000 0.500000 0.000000
0.610655 0.289873 0.006690 0.300000 0.000000 0.600000
0.520353 0.339071 -0.268250 0.300000 0.600000 0.000000
0.429561 -0.535826 -0.369448 0.600000 0.000000 0.300000
0.610655 -0.255785 0.072181 0.300000 0.000000 0.600000
0.522020 0.488663 -0.350185 0.500000 0.500000 0.000000
0.216992 0.245721 -0.153922 0.600000 0.000000 0.300000
0.661577 0.458745 0.067063 0.500000 0.500000 0.000000
0.580737 -0.373861 0.141918 0.300000 0.000000 0.600000
-0.391116 0.239597 0.400557 0.300000 0.000000 0.600000
0.580737 0.000636 -0.122238 0.300000 0.000000 0.600000
0.492465 0.428826 -0.100961 0.500000 0.500000 0.000000
0.549872 0.080221 -0.399366 0.600000 0.000000 0.300000
0.216992 -0.411582 0.021148 0.600000 0.000000 0.300000
-0.025186 -0.009030 -0.369448 0.600000 0.300000 0.000000
-0.511654 0.167223 -0.399366 0.600000 0.000000 0.300000
0.437389 -0.550607 0.317700 0.000000 0.000000 1.000000
-0.176670 -0.389468 -0.200732 0.800000 0.200000 0.500000
0.580737 0.153676 0.194636 0.300000 0.000000 0.600000
-0.570253 0.308038 -0.369448 0.600000 0.300000 0.000000
0.246911 -0.080930 0.127323 0.600000 0.000000 0.300000
-0.024414 0.124693 -0.399366 0.600000 0.300000 0.000000
-0.540415 -0.460088 -0.051522 0.600000 0.300000 0.000000
-0.176670 0.271452 -0.285419 0.800000 0.200000 0.500000
-0.283782 0.458745 -0.360159 0.500000 0.500000 0.000000
0.638192 0.310830 0.232069 0.500000 0.000000 0.500000
-0.274121 0.428826 0.053449 0.500000 0.500000 0.000000
-0.646941 0.488663 0.278590 0.500000 0.500000 0.000000
-0.503329 0.339071 0.027397 0.300000 0.600000 0.000000
-0.540415 -0.256322 0.340932 0.600000 0.300000 0.000000
0.372568 -0.460002 -0.399366 0.600000 0.000000 0.300000
0.246911 0.034528 0.205578 0.600000 0.000000 0.300000
0.405469 0.458745 0.156564 0.500000 0.500000 0.000000
0.431618 -0.458472 0.421027 0.600000 0.000000 0.300000
0.007874 -0.550607 0.171298 0.000000 0.000000 1.000000
0.082520 0.458745 -0.270327 0.500000 0.500000 0.000000
0.334361 0.428826 -0.260882 0.500000 0.500000 0.000000
0.259352 0.036679 -0.399366 0.600000 0.000000 0.300000
0.216992 -0.205951 0.135796 0.600000 0.000000 0.300000
-0.556271 0.004144 -0.399366 0.600000 0.000000 0.300000
0.287172 0.458745 0.157784 0.500000 0.500000 0.000000
-0.108181 -0.347543 -0.369448 0.600000 0.300000 0.000000
-0.176670 -0.132002 0.130186 0.800000 0.200000 0.500000
0.091074 -0.145820 -0.369448 0.600000 0.300000 0.000000
0.610655 -0.362146 0.340494 0.300000 0.000000 0.600000
-0.477460 0.368989 -0.080773 0.300000 0.600000 0.000000
0.506527 -0.093368 0.421027 0.600000 0.000000 0.300000
-0.288042 0.488663 -0.017261 0.500000 0.500000 0.000000
-0.204450 0.458745 -0.331336 0.500000 0.500000 0.000000
0.216992 -0.207549 -0.032986 0.600000 0.000000 0.300000
-0.589680 0.458745 0.342430 0.500000 0.500000 0.000000
0.598155 -0.509383 -0.249774 0.300000 0.000000 0.600000
-0.540415 -0.032452 -0.295257 0.600000 0.300000 0.000000
0.216992 -0.258093 -0.308653 0.600000 0.000000 0.300000
-0.582741 0.044315 -0.249774 0.000000 1.000000 0.000000
0.539977 -0.462743 0.400557 0.600000 0.000000 0.300000
0.175413 -0.550607 0.162455 0.000000 0.000000 1.000000
-0.206589 -0.190598 0.088762 0.800000 0.200000 0.500000
0.580737 0.142014 0.236170 0.300000 0.000000 0.600000
0.454274 0.458745 0.082528 0.500000 0.500000 0.000000
0.610655 -0.458461 0.412001 0.300000 0.000000 0.600000
-0.226954 -0.211166 -0.399366 0.600000 0.000000 0.300000
0.216992 0.154390 0.409244 0.600000 0.000000 0.300000
0.031352 -0.550607 -0.303259 0.000000 0.000000 1.000000
0.216992 0.236761 0.039890 0.600000 0.000000 0.300000
-0.206589 0.262983 0.083535 0.800000 0.200000 0.500000
0.216992 0.314928 0.155528 0.600000 0.000000 0.300000
0.610655 -0.109302 0.171825 0.300000 0.000000 0.600000
-0.412228 0.458745 -0.017828 0.500000 0.500000 0.000000
0.643723 0.239571 -0.210688 0.500000 0.500000 0.000000
0.610655 -0.352403 -0.165744 0.300000 0.000000 0.600000
-0.311842 -0.520688 0.110110 0.000000 0.000000 1.000000
0.240636 -0.512520 0.400557 0.600000 0.000000 0.300000
0.579917 -0.618202 -0.180490 0.500000 0.500000 0.000000
0.580737 -0.311624 0.167549 0.300000 0.000000 0.600000
0.307264 -0.113767 -0.399366 0.600000 0.000000 0.300000
0.216992 0.106406 0.283558 0.600000 0.000000 0.300000
0.422398 -0.520688 -0.168168 0.000000 0.000000 1.000000
-0.176375 0.458745 -0.255306 0.500000 0.500000 0.000000
0.636343 0.111719 0.301354 0.500000 0.000000 0.500000
0.120508 0.458745 0.042493 0.500000 0.500000 0.000000
-0.628083 0.488663 0.147399 0.500000 0.500000 0.000000
0.545462 0.287837 0.421027 0.600000 0.000000 0.300000
-0.127593 -0.379985 -0.399366 0.600000 0.300000 0.000000
0.074334 0.458745 0.123683 0.500000 0.500000 0.000000
-0.206589 -0.231557 -0.229351 0.800000 0.200000 0.500000
0.581442 0.458745 -0.161046 0.500000 0.500000 0.000000
0.247533 0.128126 0.421027 0.600000 0.000000 0.300000
-0.540415 -0.450330 -0.314469 0.600000 0.300000 0.000000
0.643723 -0.377887 -0.199533 0.500000 0.500000 0.000000
0.472345 0.368989 0.235497 0.300000 0.600000 0.000000
-0.310354 -0.132919 0.400557 0.300000 0.000000 0.600000
-0.444299 0.458745 0.382694 0.500000 0.500000 0.000000
-0.480485 0.458745 0.098124 0.500000 0.500000 0.000000
-0.454001 0.428826 -0.342091 0.500000 0.500000 0.000000
0.059588 -0.550607 0.100552 0.000000 0.000000 1.000000
0.043269 0.473669 -0.400941 0.500000 0.500000 0.000000
-0.540415 0.112616 -0.028299 0.600000 0.300000 0.000000
0.580737 -0.143830 0.083134 0.300000 0.000000 0.600000
0.365196 0.488663 -0.336312 0.500000 0.500000 0.000000
0.590876 0.063169 -0.369448 0.300000 0.000000 0.600000
0.138778 0.428826 -0.020009 0.500000 0.500000 0.000000
-0.240672 0.488663 0.248818 0.500000 0.500000 0.000000
-0.272648 0.458745 0.132274 0.500000 0.500000 0.000000
0.659475 0.488663 0.317603 0.500000 0.500000 0.000000
0.103683 0.339071 -0.106460 0.300000 0.600000 0.000000
-0.550764 0.428826 -0.244159 0.500000 0.500000 0.000000
0.063172 0.339071 -0.001300 0.300000 0.600000 0.000000
0.216992 0.173601 0.341381 0.600000 0.000000 0.300000
0.594909 0.165874 -0.246816 0.300000 0.000000 0.600000
0.000640 0.346995 0.421027 0.300000 0.600000 0.000000
0.402698 0.368989 -0.273933 0.300000 0.600000 0.000000
0.244617 0.192668 0.400557 0.600000 0.000000 0.300000
-0.176670 -0.470845 0.129051 0.800000 0.200000 0.500000
0.580737 -0.328481 -0.057651 0.300000 0.000000 0.600000
-0.176670 0.324404 0.312419 0.800000 0.200000 0.500000
-0.616524 0.488663 -0.170248 0.500000 0.500000 0.000000
0.246911 0.283586 0.125307 0.600000 0.000000 0.300000
-0.638012 0.488663 0.011681 0.500000 0.500000 0.000000
-0.196031 0.291281 -0.369448 0.600000 0.000000 0.300000
-0.176670 -0.000447 0.214665 0.800000 0.200000 0.500000
0.518006 0.458745 0.180541 0.500000 0.500000 0.000000
-0.540415 0.304005 -0.114913 0.600000 0.300000 0.000000
-0.570333 -0.173238 -0.349307 0.600000 0.300000 0.000000
0.445361 -0.363144 -0.399366 0.600000 0.000000 0.300000
-0.570333 -0.209397 -0.348870 0.600000 0.300000 0.000000
-0.206589 -0.048606 -0.049823 0.800000 0.200000 0.500000
0.194155 -0.520688 0.246688 0.000000 0.000000 1.000000
-0.479836 0.286468 -0.369448 0.600000 0.000000 0.300000
0.489584 -0.232415 0.400557 0.600000 0.000000 0.300000
0.300279 -0.550607 -0.395283 0.600000 0.000000 0.300000
-0.540415 0.090333 -0.003812 0.600000 0.300000 0.000000
-0.176670 -0.411993 0.177510 0.800000 0.200000 0.500000
0.246911 -0.482343 0.178543 0.600000 0.000000 0.300000
-0.244138 -0.520688 0.370096 0.000000 0.000000 1.000000
0.584855 0.458745 -0.332413 0.500000 0.500000 0.000000
-0.342676 -0.498880 0.421027 0.300000 0.000000 0.600000
0.578717 0.368989 -0.282471 0.300000 0.600000 0.000000
-0.212709 0.488663 -0.279860 0.500000 0.500000 0.000000
0.527947 0.179491 0.421027 0.600000 0.000000 0.300000
-0.055596 0.368989 0.010770 0.300000 0.600000 0.000000
-0.206589 -0.405288 -0.120480 0.800000 0.200000 0.500000
-0.206589 0.344716 0.158583 0.300000 0.600000 0.000000
-0.114304 -0.550607 0.063724 0.000000 0.000000 1.000000
0.559071 -0.520688 0.299644 0.000000 0.000000 1.000000
-0.495030 -0.399756 0.400557 0.300000 0.000000 0.600000
-0.303080 0.368989 0.354761 0.300000 0.600000 0.000000
-0.554587 -0.191048 0.273451 1.000000 0.000000 0.000000
-0.570333 -0.426648 0.328857 0.600000 0.300000 0.000000
-0.176670 -0.302204 0.332619 0.800000 0.200000 0.500000
0.510124 -0.550607 0.379623 0.000000 0.000000 1.000000
0.610655 -0.291812 0.183730 0.300000 0.000000 0.600000
-0.294687 -0.520688 -0.252839 0.000000 0.000000 1.000000
0.196420 0.458745 0.257111 0.500000 0.500000 0.000000
-0.206589 0.083090 0.323652 0.800000 0.200000 0.500000
-0.404961 -0.011712 -0.399366 0.600000 0.000000 0.300000
0.216992 0.279134 0.153530 0.600000 0.000000 0.300000
0.579680 0.488663 0.304826 0.500000 0.500000 0.000000
0.610655 0.206690 0.379677 0.300000 0.000000 0.600000
0.286352 -0.137285 -0.369448 0.600000 0.000000 0.300000
0.216992 -0.095511 0.149351 0.600000 0.000000 0.300000
0.315303 -0.012810 0.421027 0.600000 0.000000 0.300000
0.246911 0.071873 -0.155441 0.600000 0.000000 0.300000
0.246911 -0.384159 0.387180 0.600000 0.000000 0.300000
0.580737 0.124941 -0.265040 0.300000 0.000000 0.600000
0.643723 0.045504 -0.218695 0.500000 0.500000 0.000000
0.246911 -0.517924 0.276231 0.600000 0.000000 0.300000
0.594909 -0.300740 0.268255 0.300000 0.000000 0.600000
-0.291836 -0.489422 -0.399366 0.600000 0.000000 0.300000
-0.149274 0.080368 -0.369448 0.600000 0.300000 0.000000
-0.232606 0.069459 0.421027 0.300000 0.000000 0.600000
-0.503274 0.428826 -0.339966 0.500000 0.500000 0.000000
-0.373147 0.368989 0.144284 0.300000 0.600000 0.000000
0.246911 -0.017057 -0.020269 0.600000 0.000000 0.300000
-0.034817 0.428826 -0.171739 0.500000 0.500000 0.000000
0.468151 -0.520688 -0.006364 0.000000 0.000000 1.000000
0.154954 -0.149971 -0.399366 0.600000 0.300000 0.000000
-0.353199 0.339071 0.114720 0.300000 0.600000 0.000000
-0.554587 0.081194 0.263430 0.600000 0.300000 0.000000
0.539654 -0.520688 0.346114 0.000000 0.000000 1.000000
-0.484956 -0.520688 -0.153597 0.000000 0.000000 1.000000
-0.564377 -0.461026 0.232069 0.600000 0.300000 0.000000
0.610655 0.150623 -0.031001 0.300000 0.000000 0.600000
-0.540415 0.013321 -0.299758 0.600000 0.300000 0.000000
-0.352113 0.113728 -0.369448 0.600000 0.000000 0.300000
0.483139 -0.527106 -0.399366 0.600000 0.000000 0.300000
-0.192557 0.428826 -0.133503 0.500000 0.500000 0.000000
0.246911 -0.222358 -0.281762 0.600000 0.000000 0.300000
-0.206589 -0.290590 0.234573 0.800000 0.200000 0.500000
-0.280279 -0.550607 -0.010996 0.000000 0.000000 1.000000
-0.344414 0.339071 0.233586 0.300000 0.600000 0.000000
-0.346377 0.368989 -0.028039 0.300000 0.600000 0.000000
0.624058 -0.408814 0.232069 0.500000 0.000000 0.500000
0.150390 0.488663 -0.086431 0.500000 0.500000 0.000000
0.494234 0.339071 -0.093956 0.300000 0.600000 0.000000
-0.206589 -0.410914 -0.312784 0.800000 0.200000 0.500000
0.246911 0.003814 0.400086 0.600000 0.000000 0.300000
-0.370950 0.081460 0.421027 0.300000 0.000000 0.600000
0.343845 0.458745 -0.297547 0.500000 0.500000 0.000000
0.610655 0.157729 -0.389481 0.600000 0.000000 0.300000
0.274641 -0.386506 -0.369448 0.600000 0.000000 0.300000
-0.416901 -0.550607 -0.071149 0.000000 0.000000 1.000000
-0.621262 0.428826 0.362040 0.500000 0.500000 0.000000
-0.538223 0.368989 -0.303807 0.300000 0.600000 0.000000
-0.554587 -0.299242 -0.246003 0.600000 0.300000 0.000000
-0.071218 0.339071 -0.086478 0.300000 0.600000 0.000000
0.068838 0.368989 0.332445 0.300000 0.600000 0.000000
0.643723 -0.256328 -0.221644 0.500000 0.500000 0.000000
0.216992 -0.523171 -0.049952 0.000000 0.000000 1.000000
-0.570333 -0.444367 -0.032120 0.600000 0.300000 0.000000
-0.386245 -0.173234 -0.369448 0.600000 0.000000 0.300000
-0.537374 -0.628531 0.245692 1.000000 0.000000 0.000000
0.061166 0.488663 -0.254195 0.500000 0.500000 0.000000
0.089074 0.458745 -0.130790 0.500000 0.500000 0.000000
0.693452 0.458745 0.269410 0.500000 0.500000 0.000000
-0.176670 -0.216865 -0.133929 0.800000 0.200000 0.500000
-0.540415 -0.453919 -0.264680 0.600000 0.300000 0.000000
0.625595 0.428826 -0.070738 0.500000 0.500000 0.000000
-0.171981 -0.415215 -0.399366 0.600000 0.300000 0.000000
-0.279546 0.458745 -0.078495 0.500000 0.500000 0.000000
0.317711 0.129153 -0.369448 0.600000 0.000000 0.300000
-0.392038 0.428826 0.102869 0.500000 0.500000 0.000000
-0.087247 0.458745 -0.047856 0.500000 0.500000 0.000000
0.246911 -0.465683 0.212866 0.600000 0.000000 0.300000
0.216992 0.304653 -0.165312 0.600000 0.000000 0.300000
-0.206589 -0.195806 -0.223284 0.800000 0.200000 0.500000
0.609881 0.252334 -0.369448 0.600000 0.000000 0.300000
-0.565976 0.458745 -0.287008 0.500000 0.500000 0.000000
0.610655 0.316128 -0.052556 0.300000 0.000000 0.600000
-0.176670 0.304224 0.052535 0.800000 0.200000 0.500000
-0.176670 -0.365801 0.367853 0.800000 0.200000 0.500000
0.216992 0.066617 0.358068 0.600000 0.000000 0.300000
0.570006 0.368989 -0.331103 0.300000 0.600000 0.000000
-0.152486 0.488663 0.080780 0.500000 0.500000 0.000000
-0.520771 -0.550607 -0.062720 0.000000 0.000000 1.000000
-0.161037 0.184465 -0.369448 0.600000 0.300000 0.000000
-0.089866 0.368989 0.170712 0.300000 0.600000 0.000000
0.389810 -0.104177 -0.399366 0.600000 0.000000 0.300000
0.246911 -0.493595 0.090773 0.600000 0.000000 0.300000
-0.540415 0.044489 0.183413 0.600000 0.300000 0.000000
-0.176670 -0.404166 -0.331245 0.800000 0.200000 0.500000
-0.567914 -0.019311 -0.369448 0.600000 0.000000 0.300000
0.211426 0.339797 -0.369448 0.600000 0.300000 0.000000
-0.316723 -0.255827 -0.399366 0.600000 0.000000 0.300000
0.580737 0.095717 0.228513 0.300000 0.000000 0.600000
-0.176670 -0.146880 -0.186999 0.800000 0.200000 0.500000
-0.454747 -0.520688 0.134417 0.000000 0.000000 1.000000
0.569147 0.488663 0.184106 0.500000 0.500000 0.000000
-0.176670 -0.127674 -0.286213 0.800000 0.200000 0.500000
0.177845 -0.445401 -0.399366 0.600000 0.300000 0.000000
-0.292574 -0.302203 0.421027 0.300000 0.000000 0.600000
-0.529971 0.458745 0.009130 0.500000 0.500000 0.000000
0.514895 0.428826 -0.373602 0.500000 0.500000 0.000000
-0.540415 -0.495430 0.286887 0.600000 0.300000 0.000000
0.246911 -0.245138 0.267091 0.600000 0.000000 0.300000
0.610655 0.224857 0.419463 0.300000 0.000000 0.600000
0.134882 0.428826 0.135259 0.500000 0.500000 0.000000
-0.316156 0.168564 0.400557 0.300000 0.000000 0.600000
-0.380391 0.488663 0.190204 0.500000 0.500000 0.000000
-0.516256 -0.550607 0.377157 0.000000 0.000000 1.000000
0.151763 -0.550607 -0.298338 0.000000 0.000000 1.000000
-0.525988 -0.393717 -0.369448 0.600000 0.000000 0.300000
-0.426702 0.368989 -0.129771 0.300000 0.600000 0.000000
-0.506727 0.144396 0.421027 0.300000 0.000000 0.600000
-0.041816 0.458745 -0.350805 0.500000 0.500000 0.000000
0.045791 0.458745 -0.036643 0.500000 0.500000 0.000000
-0.176670 0.158475 -0.289797 0.800000 0.200000 0.500000
0.254374 -0.203166 0.421027 0.600000 0.000000 0.300000
-0.140273 0.458745 0.138830 0.500000 0.500000 0.000000
-0.449907 -0.520688 -0.201036 0.000000 0.000000 1.000000
-0.176670 -0.068394 0.386987 0.800000 0.200000 0.500000
-0.157007 0.458745 -0.026821 0.500000 0.500000 0.000000
0.416083 -0.000435 0.421027 0.600000 0.000000 0.300000
0.005985 0.428826 0.407891 0.500000 0.500000 0.000000
-0.570515 0.458745 -0.055050 0.500000 0.500000 0.000000
0.360813 -0.296288 0.421027 0.600000 0.000000 0.300000
-0.045337 0.030226 -0.369448 0.600000 0.300000 0.000000
0.580737 -0.411372 0.087560 0.300000 0.000000 0.600000
-0.113608 0.458745 0.065081 0.500000 0.500000 0.000000
-0.326753 -0.550607 0.416255 0.000000 0.000000 1.000000
0.093327 0.009267 -0.369448 0.600000 0.300000 0.000000
0.246911 -0.006172 -0.322548 0.600000 0.000000 0.300000
-0.475765 -0.012283 0.421027 0.300000 0.000000 0.600000
0.610655 -0.495148 -0.391630 0.600000 0.000000 0.300000
0.381072 -0.472858 0.421027 0.600000 0.000000 0.300000
-0.521830 0.057103 0.400557 0.300000 0.000000 0.600000
-0.259308 0.368989 0.014134 0.300000 0.600000 0.000000
-0.554587 -0.056006 -0.221615 0.000000 1.000000 0.000000
0.528336 0.214580 -0.399366 0.600000 0.000000 0.300000
0.311305 -0.447109 -0.399366 0.600000 0.000000 0.300000
-0.176670 -0.481090 -0.175927 0.800000 0.200000 0.500000
0.658925 0.488663 0.206822 0.500000 0.500000 0.000000
0.077518 -0.257466 -0.399366 0.600000 0.300000 0.000000
-0.601125 -0.416961 0.301354 1.000000 0.000000 0.000000
0.246911 0.044763 0.353216 0.600000 0.000000 0.300000
-0.234487 0.213152 -0.399366 0.600000 0.000000 0.300000
0.578762 0.141433 -0.369448 0.600000 0.000000 0.300000
-0.515420 -0.550607 0.277758 0.000000 0.000000 1.000000
-0.206589 0.038169 0.033722 0.800000 0.200000 0.500000
0.216992 0.313422 0.271461 0.600000 0.000000 0.300000
0.531499 0.339071 0.072836 0.300000 0.600000 0.000000
0.389955 0.458745 0.055895 0.500000 0.500000 0.000000
-0.163638 -0.520688 -0.100917 0.000000 0.000000 1.000000
0.069717 0.368989 0.414489 0.300000 0.600000 0.000000
0.354760 0.458745 0.044620 0.500000 0.500000 0.000000
0.029825 0.368989 0.138689 0.300000 0.600000 0.000000
0.216992 -0.200733 0.383557 0.600000 0.000000 0.300000
0.003467 0.339071 0.101832 0.300000 0.600000 0.000000
-0.206589 -0.187675 -0.340159 0.800000 0.200000 0.500000
0.177441 0.488663 0.370436 0.500000 0.500000 0.000000
-0.437821 0.023888 0.421027 0.300000 0.000000 0.600000
-0.190152 -0.550607 0.189500 0.000000 0.000000 1.000000
-0.540415 0.091719 0.157435 0.600000 0.300000 0.000000
0.374349 0.368989 -0.238199 0.300000 0.600000 0.000000
0.684173 0.458745 0.162150 0.500000 0.500000 0.000000
-0.273194 0.368989 0.212570 0.300000 0.600000 0.000000
0.416652 0.458745 0.197686 0.500000 0.500000 0.000000
-0.311869 0.458745 0.402402 0.500000 0.500000 0.000000
0.258279 0.339071 0.280754 0.300000 0.600000 0.000000
-0.067189 0.368989 -0.359173 0.300000 0.600000 0.000000
-0.179718 0.488663 0.024120 0.500000 0.500000 0.000000
-0.475660 0.368989 -0.183441 0.300000 0.600000 0.000000
-0.475179 0.254109 0.400557 0.300000 0.000000 0.600000
-0.570333 0.327752 0.091181 0.600000 0.300000 0.000000
-0.244738 0.488663 0.011718 0.500000 0.500000 0.000000
0.169344 -0.550607 -0.228948 0.000000 0.000000 1.000000
0.246911 0.311853 0.372013 0.600000 0.000000 0.300000
-0.447113 0.428826 0.365196 0.500000 0.500000 0.000000
0.552616 -0.520688 -0.338845 0.000000 0.000000 1.000000
0.537794 0.458745 0.003697 0.500000 0.500000 0.000000
-0.510697 0.339071 -0.186879 0.300000 0.600000 0.000000
0.580737 -0.208537 0.118137 0.300000 0.000000 0.600000
-0.176670 -0.356406 -0.331805 0.800000 0.200000 0.500000
-0.218998 0.488663 0.122827 0.500000 0.500000 0.000000
-0.370568 0.316282 -0.399366 0.600000 0.000000 0.300000
0.246911 0.075108 0.152057 0.600000 0.000000 0.300000
-0.531168 0.458745 -0.128554 0.500000 0.500000 0.000000
0.251235 -0.550607 0.063654 0.000000 0.000000 1.000000
0.280335 -0.520688 -0.110689 0.000000 0.000000 1.000000
-0.176670 0.088012 0.362368 0.800000 0.200000 0.500000
-0.519335 -0.436175 -0.369448 0.600000 0.000000 0.300000
0.465084 -0.027089 -0.399366 0.600000 0.000000 0.300000
-0.352184 -0.520688 0.189639 0.000000 0.000000 1.000000
-0.008419 -0.550607 -0.255649 0.000000 0.000000 1.000000
0.594196 0.458745 0.076941 0.500000 0.500000 0.000000
-0.523689 0.188296 -0.369448 0.600000 0.000000 0.300000
-0.176670 0.257254 -0.323989 0.800000 0.200000 0.500000
-0.424387 0.458745 0.277594 0.500000 0.500000 0.000000
-0.417932 0.368989 -0.387592 0.600000 0.000000 0.300000
0.497870 0.368989 -0.247094 0.300000 0.600000 0.000000
0.246911 0.318763 -0.119056 0.600000 0.000000 0.300000
0.486386 0.428826 0.181788 0.500000 0.500000 0.000000
-0.622638 -0.680481 0.271111 1.000000 0.000000 0.000000
-0.206589 0.098324 0.089812 0.800000 0.200000 0.500000
-0.206589 0.101806 0.363883 0.800000 0.200000 0.500000
0.654822 0.428826 0.158149 0.500000 0.500000 0.000000
0.472683 -0.273824 -0.369448 0.600000 0.000000 0.300000
0.580737 0.263169 -0.346155 0.300000 0.000000 0.600000
0.216992 -0.415249 -0.300089 0.600000 0.000000 0.300000
0.363775 -0.201777 -0.369448 0.600000 0.000000 0.300000
0.260979 0.458745 0.119520 0.500000 0.500000 0.000000
-0.206589 -0.180108 -0.160738 0.800000 0.200000 0.500000
0.068185 0.163558 -0.399366 0.600000 0.300000 0.000000
-0.416091 0.428826 0.075533 0.500000 0.500000 0.000000
0.610655 -0.239489 -0.314811 0.300000 0.000000 0.600000
0.188659 -0.520688 0.020138 0.000000 0.000000 1.000000
-0.392650 -0.098141 -0.399366 0.600000 0.000000 0.300000
-0.247074 0.368989 0.161773 0.300000 0.600000 0.000000
0.216992 -0.102616 -0.041927 0.600000 0.000000 0.300000
-0.567346 -0.237432 0.232069 1.000000 0.000000 0.000000
-0.079187 0.368989 0.134371 0.300000 0.600000 0.000000
-0.009168 -0.025832 -0.399366 0.600000 0.300000 0.000000
-0.176670 0.273133 -0.181182 0.800000 0.200000 0.500000
-0.141301 0.428826 0.096527 0.500000 0.500000 0.000000
-0.235475 0.488663 -0.364977 0.500000 0.500000 0.000000
0.216992 -0.044450 0.216629 0.600000 0.000000 0.300000
-0.337615 0.458745 -0.210459 0.500000 0.500000 0.000000
0.610655 -0.199597 -0.155557 0.300000 0.000000 0.600000
0.517496 0.458745 0.212316 0.500000 0.500000 0.000000
0.105570 0.458745 0.185195 0.500000 0.500000 0.000000
-0.562835 0.458745 0.256308 0.500000 0.500000 0.000000
0.246911 -0.392995 -0.012611 0.600000 0.000000 0.300000
-0.570333 -0.283188 -0.029321 0.600000 0.300000 0.000000
-0.412123 0.458745 -0.256854 0.500000 0.500000 0.000000
-0.540415 0.305052 0.351444 0.600000 0.300000 0.000000
-0.252854 0.344208 0.400557 0.300000 0.000000 0.600000
0.454180 -0.424426 -0.369448 0.600000 0.000000 0.300000
-0.486820 0.339071 -0.005431 0.300000 0.600000 0.000000
-0.464973 0.458745 0.328505 0.500000 0.500000 0.000000
0.610655 -0.066955 0.100247 0.300000 0.000000 0.600000
-0.227926 0.428826 0.212314 0.500000 0.500000 0.000000
0.224681 0.348519 0.410938 0.300000 0.600000 0.000000
-0.113639 0.458745 -0.231393 0.500000 0.500000 0.000000
0.580737 0.118829 0.391914 0.300000 0.000000 0.600000
-0.176670 -0.270803 0.022651 0.800000 0.200000 0.500000
-0.514569 -0.520688 0.335989 0.000000 0.000000 1.000000
-0.188378 -0.046784 -0.399366 0.600000 0.300000 0.000000
-0.206589 -0.427378 -0.091631 0.800000 0.200000 0.500000
0.053613 -0.449923 -0.399366 0.600000 0.300000 0.000000
-0.087862 0.339071 0.037079 0.300000 0.600000 0.000000
-0.180724 0.428826 -0.264583 0.500000 0.500000 0.000000
0.631248 0.488663 -0.003409 0.500000 0.500000 0.000000
0.216992 -0.307168 0.395958 0.600000 0.000000 0.300000
-0.381404 0.458745 0.127513 0.500000 0.500000 0.000000
-0.083582 -0.520688 -0.198644 0.000000 0.000000 1.000000
-0.042451 -0.208801 -0.369448 0.600000 0.300000 0.000000
0.309295 0.339071 -0.304413 0.300000 0.600000 0.000000
-0.370919 0.458745 0.368398 0.500000 0.500000 0.000000
-0.176670 0.270696 -0.046936 0.800000 0.200000 0.500000
-0.634933 0.428826 -0.315383 0.500000 0.500000 0.000000
0.580737 -0.461039 -0.149523 0.300000 0.000000 0.600000
0.580737 -0.314102 -0.337307 0.300000 0.000000 0.600000
-0.546376 -0.526649 0.049303 0.600000 0.300000 0.000000
0.561052 0.368989 0.038843 0.300000 0.600000 0.000000
-0.232374 0.458745 -0.241868 0.500000 0.500000 0.000000
0.246911 -0.224464 -0.121558 0.600000 0.000000 0.300000
0.571482 0.368989 0.308523 0.300000 0.600000 0.000000
-0.162619 -0.550607 -0.087164 0.000000 0.000000 1.000000
-0.201646 -0.550607 0.069342 0.000000 0.000000 1.000000
0.421110 0.339071 0.051742 0.300000 0.600000 0.000000
0.336188 0.458745 0.262066 0.500000 0.500000 0.000000
0.201830 -0.550607 -0.207960 0.000000 0.000000 1.000000
0.436715 0.155861 -0.399366 0.600000 0.000000 0.300000
-0.311416 -0.023092 0.421027 0.300000 0.000000 0.600000
-0.098076 0.232593 -0.399366 0.600000 0.300000 0.000000
0.216992 0.228483 -0.220069 0.600000 0.000000 0.300000
0.264471 -0.423181 0.400557 0.600000 0.000000 0.300000
-0.557023 0.298400 -0.249774 0.000000 1.000000 0.000000
0.318584 0.488663 0.129524 0.500000 0.500000 0.000000
-0.176670 -0.170679 0.179589 0.800000 0.200000 0.500000
-0.139654 0.368989 0.166761 0.300000 0.600000 0.000000
0.211692 0.368989 -0.189014 0.300000 0.600000 0.000000
0.281691 0.339071 0.151836 0.300000 0.600000 0.000000
0.096444 0.339071 -0.059735 0.300000 0.600000 0.000000
-0.577044 0.458745 0.214922 0.500000 0.500000 0.000000
0.136403 -0.520688 -0.029351 0.000000 0.000000 1.000000
-0.223514 0.339071 0.271816 0.300000 0.600000 0.000000
-0.176670 -0.205120 -0.300277 0.800000 0.200000 0.500000
0.086384 0.368989 0.024404 0.300000 0.600000 0.000000
0.246911 0.206791 0.204985 0.600000 0.000000 0.300000
-0.540415 -0.053158 0.123383 0.600000 0.300000 0.000000
0.580737 -0.441732 -0.005512 0.300000 0.000000 0.600000
0.604563 0.368989 -0.350997 0.300000 0.600000 0.000000
-0.489056 -0.520688 0.310033 0.000000 0.000000 1.000000
0.216992 -0.204682 -0.066155 0.600000 0.000000 0.300000
0.610655 0.200167 -0.127952 0.300000 0.000000 0.600000
0.216992 -0.127675 0.323614 0.600000 0.000000 0.300000
-0.570333 0.013332 -0.115529 0.600000 0.300000 0.000000
0.274204 -0.254304 -0.399366 0.600000 0.000000 0.300000
-0.540415 0.164133 0.366597 0.600000 0.300000 0.000000
-0.443452 0.368989 0.098912 0.300000 0.600000 0.000000
-0.175228 0.368989 -0.019350 0.300000 0.600000 0.000000
0.246911 0.258743 -0.281357 0.600000 0.000000 0.300000
0.216992 -0.332723 -0.223874 0.600000 0.000000 0.300000
0.216992 0.214981 0.272588 0.600000 0.000000 0.300000
0.246911 -0.529265 -0.167808 0.000000 0.000000 1.000000
0.215920 -0.520688 -0.293421 0.000000 0.000000 1.000000
0.180849 0.368989 -0.028122 0.300000 0.600000 0.000000
0.132980 0.307718 -0.369448 0.600000 0.300000 0.000000
-0.280304 -0.550607 0.368976 0.000000 0.000000 1.000000
-0.570333 0.179738 0.196243 0.600000 0.300000 0.000000
-0.545403 -0.206712 0.421027 0.300000 0.000000 0.600000
0.263722 -0.178441 -0.399366 0.600000 0.000000 0.300000
0.523064 0.458745 -0.025513 0.500000 0.500000 0.000000
-0.540415 -0.388653 -0.071183 0.600000 0.300000 0.000000
-0.290392 0.368989 -0.101178 0.300000 0.600000 0.000000
0.535010 -0.550607 0.057791 0.000000 0.000000 1.000000
0.215752 0.488663 -0.015894 0.500000 0.500000 0.000000
0.361994 0.368989 0.124697 0.300000 0.600000 0.000000
0.246911 -0.309224 0.190166 0.600000 0.000000 0.300000
0.610655 -0.036761 0.343561 0.300000 0.000000 0.600000
0.688289 0.488663 0.384268 0.500000 0.500000 0.000000
-0.206589 -0.076378 0.392549 0.800000 0.200000 0.500000
0.216992 0.252089 0.320741 0.600000 0.000000 0.300000
-0.546646 0.458745 -0.330812 0.500000 0.500000 0.000000
-0.578495 -0.711221 -0.206577 0.000000 1.000000 0.000000
0.465543 0.458745 -0.092662 0.500000 0.500000 0.000000
0.384339 0.339071 0.107275 0.300000 0.600000 0.000000
0.177853 0.458745 0.109579 0.500000 0.500000 0.000000
-0.310123 -0.454050 -0.369448 0.600000 0.000000 0.300000
0.216992 0.181151 -0.040587 0.600000 0.000000 0.300000
-0.080750 -0.365593 -0.369448 0.600000 0.300000 0.000000
0.024299 0.428826 0.304307 0.500000 0.500000 0.000000
-0.650442 0.428826 0.152783 0.500000 0.500000 0.000000
0.396908 0.339071 -0.306283 0.300000 0.600000 0.000000
-0.001413 0.275856 -0.399366 0.600000 0.300000 0.000000
-0.659935 0.458745 0.242530 0.500000 0.500000 0.000000
0.580737 -0.342582 -0.144624 0.300000 0.000000 0.600000
-0.189268 -0.481690 -0.388631 0.600000 0.300000 0.000000
0.248574 0.428826 0.158336 0.500000 0.500000 0.000000
-0.559122 0.305207 -0.180490 0.600000 0.300000 0.000000
-0.540415 -0.220783 0.099731 0.600000 0.300000 0.000000
0.216992 0.249243 0.143478 0.600000 0.000000 0.300000
-0.176670 0.067143 -0.019684 0.800000 0.200000 0.500000
-0.176670 0.286057 0.243431 0.800000 0.200000 0.500000
0.580737 -0.309789 0.110839 0.300000 0.000000 0.600000
0.431422 -0.118747 -0.399366 0.600000 0.000000 0.300000
0.610655 -0.230894 -0.077017 0.300000 0.000000 0.600000
0.246911 -0.443672 -0.073045 0.600000 0.000000 0.300000
-0.345871 -0.454320 0.421027 0.300000 0.000000 0.600000
0.455549 0.458745 -0.239746 0.500000 0.500000 0.000000
0.275963 0.368989 -0.063273 0.300000 0.600000 0.000000
-0.047462 -0.070492 -0.399366 0.600000 0.300000 0.000000
-0.353419 0.458745 0.095049 0.500000 0.500000 0.000000
-0.560603 -0.144272 0.301354 0.600000 0.300000 0.000000
-0.030842 0.458745 0.283373 0.500000 0.500000 0.000000
-0.064782 -0.550607 0.208732 0.000000 0.000000 1.000000
0.605726 -0.703415 -0.184563 0.500000 0.500000 0.000000
-0.540415 -0.136167 0.151169 0.600000 0.300000 0.000000
-0.292816 0.339071 -0.355528 0.300000 0.600000 0.000000
0.610655 -0.321986 0.314845 0.300000 0.000000 0.600000
0.422656 0.339071 -0.345388 0.300000 0.600000 0.000000
-0.570333 0.356702 -0.129193 0.600000 0.300000 0.000000
-0.206589 -0.226440 0.179890 0.800000 0.200000 0.500000
0.590532 -0.550607 0.288154 0.500000 0.000000 0.500000
-0.318280 0.488663 -0.221413 0.500000 0.500000 0.000000
-0.570333 0.318235 -0.290791 0.600000 0.300000 0.000000
-0.581340 0.215315 0.232069 1.000000 0.000000 0.000000
-0.019496 0.339071 0.394473 0.300000 0.600000 0.000000
0.580737 -0.326040 0.395463 0.300000 0.000000 0.600000
0.114175 0.460586 0.421027 0.500000 0.500000 0.000000
0.163204 0.339071 -0.054230 0.300000 0.600000 0.000000
-0.570333 -0.362354 0.349637 0.600000 0.300000 0.000000
0.610655 -0.430195 0.151588 0.300000 0.000000 0.600000
0.163074 0.458745 -0.307933 0.500000 0.500000 0.000000
-0.203341 0.368989 0.043524 0.300000 0.600000 0.000000
-0.570333 -0.362359 0.386972 0.600000 0.300000 0.000000
-0.358387 0.488663 0.256603 0.500000 0.500000 0.000000
-0.077632 -0.229516 -0.369448 0.600000 0.300000 0.000000
-0.265958 0.458745 0.229884 0.500000 0.500000 0.000000
-0.407502 -0.520688 -0.079449 0.000000 0.000000 1.000000
-0.473948 0.368989 0.238084 0.300000 0.600000 0.000000
-0.206589 -0.065820 0.207369 0.800000 0.200000 0.500000
0.060104 0.488663 -0.006809 0.500000 0.500000 0.000000
0.096847 0.110169 -0.369448 0.600000 0.300000 0.000000
0.580737 -0.263916 -0.363533 0.300000 0.000000 0.600000
0.508003 0.329181 -0.399366 0.600000 0.000000 0.300000
-0.463471 0.458745 0.155940 0.500000 0.500000 0.000000
0.246911 -0.087991 0.334706 0.600000 0.000000 0.300000
0.574706 -0.520688 -0.095416 0.000000 0.000000 1.000000
0.030331 0.368989 -0.132813 0.300000 0.600000 0.000000
-0.497497 0.458745 0.235591 0.500000 0.500000 0.000000
0.246911 -0.102929 -0.319499 0.600000 0.000000 0.300000
-0.570333 0.186495 -0.144949 0.600000 0.300000 0.000000
-0.373343 0.368989 -0.123255 0.300000 0.600000 0.000000
0.569910 0.360198 -0.399366 0.600000 0.000000 0.300000
-0.570333 -0.265462 0.383848 0.600000 0.300000 0.000000
-0.412590 -0.347807 0.400557 0.300000 0.000000 0.600000
-0.457839 0.488663 0.255095 0.500000 0.500000 0.000000
0.185395 -0.550607 0.052380 0.000000 0.000000 1.000000
0.484708 0.488663 -0.127736 0.500000 0.500000 0.000000
0.563521 0.458745 0.234300 0.500000 0.500000 0.000000
0.145314 -0.519309 -0.369448 0.600000 0.300000 0.000000
-0.366324 -0.237141 0.421027 0.300000 0.000000 0.600000
0.250469 0.233624 -0.399366 0.600000 0.000000 0.300000
0.216992 -0.044093 0.007463 0.600000 0.000000 0.300000
-0.570333 -0.193450 0.121906 0.600000 0.300000 0.000000
-0.567081 0.247052 -0.399366 0.600000 0.000000 0.300000
-0.135636 0.339071 0.016001 0.300000 0.600000 0.000000
-0.206589 -0.116153 0.092948 0.800000 0.200000 0.500000
-0.603401 -0.105623 -0.227445 0.000000 1.000000 0.000000
-0.570333 -0.093465 0.389008 0.600000 0.300000 0.000000
0.335066 -0.482787 -0.399366 0.600000 0.000000 0.300000
-0.226705 0.368989 -0.204610 0.300000 0.600000 0.000000
0.521564 0.368989 -0.035054 0.300000 0.600000 0.000000
0.580737 -0.494988 -0.334800 0.300000 0.000000 0.600000
-0.302984 -0.550607 0.130372 0.000000 0.000000 1.000000
0.616943 0.488663 -0.097119 0.500000 0.500000 0.000000
0.420120 -0.396254 0.400557 0.600000 0.000000 0.300000
-0.595781 0.428826 0.119453 0.500000 0.500000 0.000000
-0.012390 0.488663 -0.015264 0.500000 0.500000 0.000000
-0.574749 0.458745 0.301340 0.500000 0.500000 0.000000
-0.570333 0.051019 0.395786 0.600000 0.300000 0.000000
-0.441428 -0.017368 -0.369448 0.600000 0.000000 0.300000
0.611829 0.458745 0.021448 0.500000 0.500000 0.000000
-0.603401 -0.068560 -0.214766 0.000000 1.000000 0.000000
-0.306192 0.368989 0.129070 0.300000 0.600000 0.000000
-0.570333 -0.292815 -0.140947 0.600000 0.300000 0.000000
0.246911 -0.388898 0.250269 0.600000 0.000000 0.300000
-0.206589 -0.314434 -0.287981 0.800000 0.200000 0.500000
0.580737 0.065578 -0.308696 0.300000 0.000000 0.600000
-0.420186 0.428826 -0.083704 0.500000 0.500000 0.000000
0.246911 -0.169004 -0.122192 0.600000 0.000000 0.300000
-0.176670 -0.071549 0.130034 0.800000 0.200000 0.500000
-0.176670 -0.255348 -0.054577 0.800000 0.200000 0.500000
-0.451290 -0.550607 0.041193 0.000000 0.000000 1.000000
-0.343453 0.428826 -0.093211 0.500000 0.500000 0.000000
0.580737 -0.213278 -0.104789 0.300000 0.000000 0.600000
0.549530 0.368989 0.163720 0.300000 0.600000 0.000000
-0.506854 0.428826 -0.149617 0.500000 0.500000 0.000000
-0.069329 0.339071 -0.016140 0.300000 0.600000 0.000000
-0.329913 -0.360019 0.421027 0.300000 0.000000 0.600000
-0.603401 0.203065 0.271068 1.000000 0.000000 0.000000
0.182345 0.428826 -0.150405 0.500000 0.500000 0.000000
0.216992 -0.289388 -0.333248 0.600000 0.000000 0.300000
0.450778 -0.520688 0.346488 0.000000 0.000000 1.000000
0.610655 0.031443 0.000926 0.300000 0.000000 0.600000
-0.005562 0.458745 0.305118 0.500000 0.500000 0.000000
0.362224 -0.520688 0.177204 0.000000 0.000000 1.000000
0.630644 0.488663 -0.128721 0.500000 0.500000 0.000000
0.084367 0.428826 -0.062106 0.500000 0.500000 0.000000
-0.085330 0.488663 0.299265 0.500000 0.500000 0.000000
0.246911 0.187986 0.053938 0.600000 0.000000 0.300000
0.587146 0.428826 0.361471 0.500000 0.500000 0.000000
0.030225 -0.419245 -0.369448 0.600000 0.300000 0.000000
-0.262177 0.428826 -0.002241 0.500000 0.500000 0.000000
-0.152022 0.040715 -0.399366 0.600000 0.300000 0.000000
0.017989 -0.456373 -0.399366 0.600000 0.300000 0.000000
-0.206589 -0.208344 -0.028682 0.800000 0.200000 0.500000
-0.605750 0.454716 -0.400246 0.500000 0.500000 0.000000
-0.596084 0.428826 0.062304 0.500000 0.500000 0.000000
-0.206589 0.062579 0.073986 0.800000 0.200000 0.500000
0.610655 -0.505857 0.358842 0.300000 0.000000 0.600000
-0.207655 -0.298761 -0.369448 0.600000 0.000000 0.300000
-0.593311 -0.088423 0.232069 1.000000 0.000000 0.000000
0.610655 -0.058109 -0.305433 0.300000 0.000000 0.600000
0.216992 0.127206 0.391817 0.600000 0.000000 0.300000
0.324589 0.488663 0.375191 0.500000 0.500000 0.000000
0.671114 -0.696651 -0.212765 0.500000 0.500000 0.000000
0.246911 0.234601 -0.136515 0.600000 0.000000 0.300000
-0.489671 -0.248714 0.400557 0.300000 0.000000 0.600000
0.230671 0.348519 0.261796 0.300000 0.600000 0.000000
0.017001 -0.395580 -0.399366 0.600000 0.300000 0.000000
-0.119791 0.488663 -0.144176 0.500000 0.500000 0.000000
-0.371736 0.148387 -0.369448 0.600000 0.000000 0.300000
0.283661 -0.550607 0.272762 0.000000 0.000000 1.000000
-0.655343 0.488663 -0.062234 0.500000 0.500000 0.000000
-0.333993 0.428826 0.356103 0.500000 0.500000 0.000000
-0.347656 -0.520688 -0.239848 0.000000 0.000000 1.000000
0.307567 0.299124 -0.399366 0.600000 0.000000 0.300000
0.134691 0.339071 -0.244286 0.300000 0.600000 0.000000
0.523759 0.108288 -0.369448 0.600000 0.000000 0.300000
0.580737 0.319873 -0.012376 0.300000 0.000000 0.600000
0.610655 0.166302 0.004624 0.300000 0.000000 0.600000
-0.097210 0.368989 0.065112 0.300000 0.600000 0.000000
0.088422 0.368989 -0.294682 0.300000 0.600000 0.000000
-0.072674 -0.529472 -0.369448 0.000000 0.000000 1.000000
-0.315132 0.210902 0.400557 0.300000 0.000000 0.600000
0.358566 0.368989 -0.051354 0.300000 0.600000 0.000000
-0.450242 0.339071 -0.081361 0.300000 0.600000 0.000000
0.643723 0.174241 -0.231754 0.500000 0.500000 0.000000
0.348007 0.488663 0.054948 0.500000 0.500000 0.000000
-0.542301 0.428826 0.396038 0.500000 0.500000 0.000000
0.246911 0.060616 -0.328686 0.600000 0.000000 0.300000
-0.176670 -0.418330 0.114576 0.800000 0.200000 0.500000
-0.206589 0.172092 0.261123 0.800000 0.200000 0.500000
0.016950 -0.520688 -0.168103 0.000000 0.000000 1.000000
-0.211180 0.458745 -0.065525 0.500000 0.500000 0.000000
-0.603401 -0.552609 -0.248620 0.000000 1.000000 0.000000
0.162174 0.488663 -0.380681 0.500000 0.500000 0.000000
-0.017989 0.428826 -0.301859 0.500000 0.500000 0.000000
-0.291361 -0.016091 -0.399366 0.600000 0.000000 0.300000
0.580737 -0.475729 0.172045 0.300000 0.000000 0.600000
0.560601 0.339071 0.084064 0.300000 0.600000 0.000000
0.643723 0.129826 0.240369 0.500000 0.000000 0.500000
0.042205 0.082978 -0.369448 0.600000 0.300000 0.000000
-0.098185 0.488663 -0.029799 0.500000 0.500000 0.000000
-0.060939 0.428826 0.056098 0.500000 0.500000 0.000000
0.089457 0.212318 -0.399366 0.600000 0.300000 0.000000
0.358615 0.458745 -0.360178 0.500000 0.500000 0.000000
-0.570333 -0.050439 -0.148703 0.600000 0.300000 0.000000
-0.393544 -0.520688 0.324007 0.000000 0.000000 1.000000
-0.515449 -0.520688 0.244236 0.000000 0.000000 1.000000
0.185908 -0.520688 -0.063028 0.000000 0.000000 1.000000
0.459270 -0.550607 -0.232209 0.000000 0.000000 1.000000
-0.543686 -0.320298 0.421027 0.300000 0.000000 0.600000
-0.570333 -0.514681 -0.351776 0.600000 0.300000 0.000000
-0.176670 0.329172 -0.323614 0.800000 0.200000 0.500000
-0.101042 0.458745 0.350727 0.500000 0.500000 0.000000
-0.357330 0.458745 0.153344 0.500000 0.500000 0.000000
-0.540415 -0.344845 -0.290591 0.600000 0.300000 0.000000
-0.206589 0.219984 0.258911 0.800000 0.200000 0.500000
-0.300260 0.428826 0.317701 0.500000 0.500000 0.000000
-0.176670 -0.294486 0.246519 0.800000 0.200000 0.500000
-0.206589 0.188708 -0.031043 0.800000 0.200000 0.500000
-0.234950 -0.366202 -0.369448 0.600000 0.000000 0.300000
-0.206589 0.043621 -0.051327 0.800000 0.200000 0.500000
-0.642280 0.428826 -0.004811 0.500000 0.500000 0.000000
0.580737 -0.167190 0.185902 0.300000 0.000000 0.600000
-0.176670 -0.442129 -0.130649 0.800000 0.200000 0.500000
0.580737 -0.116930 -0.172332 0.300000 0.000000 0.600000
-0.206589 0.339649 -0.097403 0.800000 0.200000 0.500000
-0.492891 0.458745 -0.374789 0.500000 0.500000 0.000000
0.206829 0.368989 0.049347 0.300000 0.600000 0.000000
0.355254 0.368989 -0.132544 0.300000 0.600000 0.000000
0.523414 0.339071 -0.068531 0.300000 0.600000 0.000000
0.542130 0.368989 0.112987 0.300000 0.600000 0.000000
0.642484 0.488663 0.118139 0.500000 0.500000 0.000000
0.051104 0.488663 -0.207216 0.500000 0.500000 0.000000
-0.566244 -0.150005 -0.369448 0.600000 0.300000 0.000000
0.041285 -0.023284 -0.369448 0.600000 0.300000 0.000000
-0.220145 0.488663 -0.151948 0.500000 0.500000 0.000000
-0.434454 0.302406 0.400557 0.300000 0.000000 0.600000
0.599834 -0.402185 -0.369448 0.300000 0.000000 0.600000
-0.176670 -0.163359 0.239748 0.800000 0.200000 0.500000
0.575926 0.356736 0.421027 0.300000 0.600000 0.000000
0.030656 0.368989 -0.008675 0.300000 0.600000 0.000000
-0.562431 -0.038900 0.421027 0.600000 0.300000 0.000000
-0.290823 0.339071 0.156458 0.300000 0.600000 0.000000
0.036519 0.428826 -0.136689 0.500000 0.500000 0.000000
-0.276830 -0.520688 0.043713 0.000000 0.000000 1.000000
-0.188850 -0.325484 -0.369448 0.600000 0.300000 0.000000
-0.300313 -0.287002 -0.399366 0.600000 0.000000 0.300000
0.179510 0.458745 -0.007184 0.500000 0.500000 0.000000
-0.147141 0.223534 -0.399366 0.600000 0.300000 0.000000
-0.486276 -0.502600 0.400557 0.300000 0.000000 0.600000
0.246911 -0.301015 0.104544 0.600000 0.000000 0.300000
0.434492 -0.218286 -0.399366 0.600000 0.000000 0.300000
-0.194741 0.458745 0.306731 0.500000 0.500000 0.000000
0.580737 -0.501539 0.209186 0.300000 0.000000 0.600000
0.191444 0.339071 0.146386 0.300000 0.600000 0.000000
0.432522 0.488663 -0.306755 0.500000 0.500000 0.000000
-0.191666 0.348519 0.380141 0.300000 0.600000 0.000000
0.234836 0.428826 -0.134311 0.500000 0.500000 0.000000
-0.115293 -0.520688 0.319260 0.000000 0.000000 1.000000
-0.351659 0.220796 -0.369448 0.600000 0.000000 0.300000
-0.570333 -0.054811 0.034331 0.600000 0.300000 0.000000
-0.635499 0.458745 -0.206289 0.500000 0.500000 0.000000
0.320866 0.428826 0.298755 0.500000 0.500000 0.000000
-0.570333 -0.147040 -0.306967 0.600000 0.300000 0.000000
0.216992 -0.336123 -0.342821 0.600000 0.000000 0.300000
-0.645477 0.428826 0.083621 0.500000 0.500000 0.000000
0.216992 -0.220158 0.040002 0.600000 0.000000 0.300000
-0.206589 0.036183 0.349605 0.800000 0.200000 0.500000
-0.409796 -0.098997 0.421027 0.300000 0.000000 0.600000
-0.588603 0.458745 -0.168034 0.500000 0.500000 0.000000
0.242813 -0.148525 -0.399366 0.600000 0.000000 0.300000
-0.438004 0.428826 -0.236776 0.500000 0.500000 0.000000
-0.514629 -0.550607 0.012498 0.000000 0.000000 1.000000
-0.540415 -0.308238 0.218877 0.600000 0.300000 0.000000
-0.401330 -0.516973 -0.399366 0.600000 0.000000 0.300000
-0.129811 -0.047017 -0.369448 0.600000 0.300000 0.000000
-0.145840 0.368989 -0.035418 0.300000 0.600000 0.000000
-0.206589 -0.316975 -0.131915 0.800000 0.200000 0.500000
0.216992 -0.182417 -0.312417 0.600000 0.000000 0.300000
0.556672 0.488663 -0.262159 0.500000 0.500000 0.000000
0.352958 -0.550607 0.243420 0.000000 0.000000 1.000000
-0.176670 0.145674 0.270203 0.800000 0.200000 0.500000
0.523116 0.339071 -0.234129 0.300000 0.600000 0.000000
0.610655 0.264625 0.368043 0.300000 0.000000 0.600000
