ply
format ascii 1.0
element vertex 1267
property float x
property float y
property float z
property uchar red
property uchar green
property uchar blue
end_header
-0.298168 -0.550607 0.000542 0 0 255
-0.012791 0.488663 -0.283249 127 127 0
-0.086120 -0.550607 0.403395 0 0 255
0.479939 -0.092790 -0.399366 153 0 76
0.580737 -0.252091 -0.213409 76 0 153
0.610655 -0.393555 -0.389466 153 0 76
0.276711 -0.550607 -0.350477 0 0 255
0.643723 -0.545220 0.261157 127 0 127
0.129334 -0.155375 -0.369448 153 76 0
-0.176670 -0.268578 0.348269 204 51 127
0.520294 0.488663 0.258500 127 127 0
-0.570333 0.081004 -0.020550 153 76 0
-0.132906 -0.089477 -0.399366 153 76 0
0.643723 0.245833 0.237494 127 0 127
-0.570333 0.080464 -0.339761 153 76 0
-0.133455 -0.405804 -0.369448 153 76 0
0.246911 -0.338461 -0.331158 153 0 76
-0.554587 -0.321893 -0.240495 0 255 0
0.669466 0.437050 0.421027 127 127 0
0.566742 -0.003324 0.421027 153 0 76
-0.570333 -0.459671 0.370610 153 76 0
0.536940 0.339071 0.041861 76 153 0
-0.540415 -0.057380 -0.099558 153 76 0
0.373812 0.339071 0.267100 76 153 0
0.220710 0.213060 0.421027 153 0 76
-0.160279 -0.550607 0.104725 0 0 255
0.423699 0.488663 0.130262 127 127 0
-0.447257 -0.550607 0.265135 0 0 255
-0.540415 0.104884 0.130905 153 76 0
-0.660075 0.428826 0.011422 127 127 0
-0.473912 0.339071 0.106273 76 153 0
0.096696 0.339071 0.309293 76 153 0
0.540513 0.488663 -0.080269 127 127 0
-0.349941 -0.410660 0.421027 76 0 153
-0.492808 0.488663 0.228342 127 127 0
-0.206589 -0.441643 0.236654 204 51 127
-0.570333 0.367478 -0.337023 153 76 0
-0.034851 0.339071 -0.202528 76 153 0
-0.300000 0.339071 -0.169487 76 153 0
-0.206589 -0.019862 -0.076055 204 51 127
-0.028660 0.488663 0.194485 127 127 0
0.143496 -0.550607 0.282932 0 0 255
0.482764 0.339071 -0.299053 76 153 0
0.394539 -0.520688 0.072101 0 0 255
-0.206589 -0.207111 -0.270692 204 51 127
0.249802 -0.045839 0.421027 153 0 76
-0.358785 0.488663 0.025173 127 127 0
-0.553785 0.073693 0.421027 76 0 153
0.395204 0.428826 -0.398274 127 127 0
0.030090 -0.520688 -0.274070 0 0 255
0.375547 0.339071 -0.048209 76 153 0
0.610655 0.213232 -0.118584 76 0 153
0.544038 0.472288 -0.400941 127 127 0
-0.439513 -0.550607 -0.246796 0 0 255
0.230515 0.428826 0.160046 127 127 0
-0.540415 -0.184985 -0.018624 153 76 0
-0.206589 -0.155142 0.259281 204 51 127
0.365552 -0.520688 0.293915 0 0 255
-0.206589 -0.168782 0.112520 204 51 127
0.692960 0.428826 0.137319 127 127 0
-0.570333 -0.205548 -0.337855 153 76 0
-0.540415 -0.064474 -0.255432 153 76 0
-0.603401 -0.346278 0.284022 255 0 0
-0.206589 0.213576 0.311404 204 51 127
0.306278 0.488663 -0.142913 127 127 0
0.539294 -0.308325 0.421027 153 0 76
0.580737 -0.055272 -0.036096 76 0 153
-0.182433 0.342182 -0.399366 153 76 0
-0.570333 -0.464971 -0.047089 153 76 0
-0.206589 0.132898 -0.280148 204 51 127
-0.182566 -0.530136 -0.084411 204 51 127
-0.540415 -0.186506 0.352748 153 76 0
-0.223533 0.488663 -0.245904 127 127 0
0.515822 0.131181 -0.369448 153 0 76
-0.001380 0.339071 0.090072 76 153 0
-0.535356 0.488663 -0.261518 127 127 0
-0.043186 0.339071 0.383374 76 153 0
-0.570333 -0.472515 -0.342960 153 76 0
0.246911 0.165433 -0.060896 153 0 76
0.086768 0.458745 -0.049005 127 127 0
0.617214 0.374597 0.301354 127 0 127
0.610655 -0.129805 -0.359615 153 0 76
-0.437172 -0.411672 -0.399366 153 0 76
0.402009 -0.289900 -0.369448 153 0 76
0.488413 0.339071 0.348179 76 153 0
-0.154757 0.339071 -0.119284 76 153 0
0.417747 -0.550607 -0.395932 153 0 76
0.329913 0.077620 0.421027 153 0 76
-0.570333 0.224122 0.211542 153 76 0
0.638024 0.037464 -0.249774 127 127 0
-0.570333 0.353213 0.389130 153 76 0
0.496552 -0.550607 0.335082 0 0 255
-0.206589 0.215092 -0.021373 204 51 127
-0.540415 0.195877 -0.091987 153 76 0
-0.008226 -0.189982 -0.369448 153 76 0
-0.603401 -0.573311 0.299237 255 0 0
0.000425 -0.422478 -0.399366 153 76 0
-0.540415 -0.360106 0.134897 153 76 0
-0.198351 0.443267 0.421027 127 127 0
0.246911 0.247744 0.096449 153 0 76
0.246911 0.269946 -0.285088 153 0 76
-0.276739 -0.249575 -0.399366 153 0 76
0.216992 0.141975 0.205717 153 0 76
0.132620 0.339071 -0.134929 76 153 0
-0.188768 0.488663 -0.023691 127 127 0
-0.176670 -0.292762 0.055586 204 51 127
-0.439568 0.488663 -0.095123 127 127 0
-0.573410 -0.600992 -0.249774 0 255 0
0.580737 -0.443226 0.196574 76 0 153
-0.432693 -0.079515 -0.369448 153 0 76
0.434416 0.428826 -0.149062 127 127 0
0.610655 -0.219144 0.084566 76 0 153
-0.109580 0.488663 -0.399700 127 127 0
0.198491 0.080066 -0.399366 153 76 0
-0.240286 0.488663 0.241285 127 127 0
-0.184549 0.368989 0.179171 204 51 127
0.148764 0.339071 0.080785 76 153 0
-0.454392 -0.520688 -0.113049 0 0 255
-0.022527 0.236423 -0.422986 76 0 153
0.610655 0.054109 0.031694 76 0 153
-0.206589 0.092674 0.203841 204 51 127
0.026010 -0.520688 -0.139072 0 0 255
-0.402969 0.205368 -0.399366 153 0 76
0.246911 -0.228765 -0.255017 153 0 76
0.216992 -0.103989 -0.025275 153 0 76
0.149353 0.488510 0.421027 127 127 0
0.324316 -0.153207 0.421027 153 0 76
-0.206589 -0.294486 -0.086051 204 51 127
0.475358 -0.151230 0.400557 153 0 76
-0.302372 0.368989 -0.295323 76 153 0
0.246911 -0.016218 0.094721 153 0 76
-0.430088 -0.520688 0.135039 0 0 255
0.246911 -0.457620 -0.262568 153 0 76
0.022975 0.488663 -0.156590 127 127 0
0.110406 0.315436 -0.399366 153 76 0
0.291104 -0.065349 -0.399366 153 0 76
-0.176670 -0.062078 0.045739 204 51 127
-0.206589 -0.464521 -0.207099 204 51 127
-0.570333 -0.500983 0.077325 153 76 0
0.484910 -0.389573 -0.369448 153 0 76
-0.540415 -0.365484 -0.120413 153 76 0
-0.427045 0.044903 0.400557 76 0 153
0.547231 -0.434806 0.421027 153 0 76
-0.577285 0.488663 0.322366 127 127 0
-0.390511 0.368989 0.306944 76 153 0
-0.571147 0.488663 -0.074151 127 127 0
0.610655 -0.530794 -0.057567 0 0 255
0.093299 0.368989 0.188256 76 153 0
0.246911 0.276323 -0.148649 153 0 76
0.021134 0.095263 -0.399366 153 76 0
-0.018243 -0.520688 0.097148 0 0 255
-0.176670 -0.396055 0.124212 204 51 127
0.161285 0.458745 -0.295414 127 127 0
-0.469854 -0.383864 0.400557 76 0 153
-0.278666 0.339071 0.095903 76 153 0
-0.167023 -0.550607 0.279256 0 0 255
-0.540415 0.000635 0.200478 153 76 0
-0.145553 0.339071 0.305782 76 153 0
0.014999 -0.550607 0.313393 0 0 255
-0.190212 0.155467 0.421027 76 0 153
0.216992 -0.451620 0.153484 153 0 76
0.580737 -0.496296 -0.281267 76 0 153
0.222102 -0.451122 -0.399366 153 76 0
-0.562726 0.428826 0.146826 127 127 0
0.580737 0.245609 0.130439 76 0 153
0.246911 -0.296986 0.283064 153 0 76
0.348222 -0.370664 0.400557 153 0 76
-0.206589 -0.044512 0.310158 204 51 127
0.643723 0.301321 -0.210647 127 127 0
-0.660088 0.436814 -0.283903 127 127 0
-0.118003 0.428826 -0.292829 127 127 0
0.216992 -0.185845 0.217107 153 0 76
-0.540415 -0.121306 0.175973 153 76 0
0.233423 0.488663 -0.396107 127 127 0
0.302012 0.488663 0.083665 127 127 0
0.019989 0.458745 0.300312 127 127 0
0.246911 -0.029677 -0.186981 153 0 76
-0.570333 0.349857 0.023421 153 76 0
-0.254174 0.046601 0.421027 76 0 153
-0.365788 0.458745 -0.343438 127 127 0
0.247149 0.458745 0.344719 127 127 0
0.421594 0.458745 0.334499 127 127 0
-0.570333 -0.239882 0.086956 153 76 0
-0.176670 -0.188893 -0.155291 204 51 127
0.344184 0.339071 -0.326957 76 153 0
-0.275660 0.237673 0.421027 76 0 153
-0.206589 -0.319409 -0.316485 204 51 127
0.212433 -0.550607 0.047010 0 0 255
-0.176670 0.223044 -0.350334 204 51 127
0.265281 0.339071 0.316636 76 153 0
-0.407316 -0.155728 0.421027 76 0 153
-0.544638 -0.650279 0.232069 255 0 0
0.216992 -0.459152 -0.106972 153 0 76
0.147807 -0.038640 -0.399366 153 76 0
-0.071506 0.017431 -0.369448 153 76 0
-0.346397 -0.495380 -0.369448 153 0 76
-0.534116 0.383838 -0.182806 76 153 0
0.497098 0.231605 0.421027 153 0 76
-0.540415 -0.247972 -0.118659 153 76 0
-0.260548 -0.326838 0.421027 76 0 153
0.640996 -0.321162 0.232069 127 0 127
0.398031 0.152945 -0.369448 153 0 76
0.246911 0.197569 0.309086 153 0 76
-0.540415 0.182121 -0.292708 153 76 0
0.620556 0.428826 -0.009671 127 127 0
-0.281180 -0.168786 0.421027 76 0 153
0.700410 0.487592 -0.202619 127 127 0
0.610655 0.301909 -0.043500 76 0 153
0.068623 0.341940 0.421027 76 153 0
-0.021898 -0.308414 -0.399366 153 76 0
0.198799 -0.259151 -0.399366 153 76 0
0.488968 0.017928 -0.369448 153 0 76
0.610655 -0.301900 -0.108006 76 0 153
0.208942 0.368989 -0.222089 76 153 0
0.610655 -0.325172 -0.295751 76 0 153
0.288466 -0.550607 -0.207414 0 0 255
0.593802 0.488663 0.350564 127 127 0
0.610655 -0.272808 0.339837 76 0 153
0.604631 0.165982 0.421027 76 0 153
-0.080192 0.428826 0.098121 127 127 0
-0.467397 -0.260984 0.400557 76 0 153
-0.416091 0.339071 -0.163556 76 153 0
0.246911 -0.120167 -0.288237 153 0 76
0.587458 0.428826 0.187814 127 127 0
0.246911 0.131285 -0.307070 153 0 76
0.610655 0.207766 -0.394596 153 0 76
-0.313934 0.126975 -0.369448 153 0 76
0.469956 0.428826 0.031175 127 127 0
0.411707 -0.181904 -0.399366 153 0 76
-0.479604 0.339071 -0.277207 76 153 0
0.498621 -0.520688 -0.166518 0 0 255
-0.540415 0.008891 0.312962 153 76 0
-0.213473 -0.478692 -0.399366 153 0 76
-0.599761 0.289627 0.301354 255 0 0
0.535965 0.458745 -0.197755 127 127 0
0.216992 -0.450036 0.389689 153 0 76
0.248993 -0.520688 0.302396 0 0 255
-0.206589 0.242042 -0.172267 204 51 127
-0.420641 0.211417 0.421027 76 0 153
-0.428504 0.488663 0.319040 127 127 0
-0.332435 -0.011535 -0.369448 153 0 76
-0.603401 0.393037 0.249145 255 0 0
-0.263056 0.428826 0.032988 127 127 0
0.593256 -0.679533 -0.184304 127 127 0
-0.273980 0.368989 0.383292 76 153 0
0.502511 -0.550607 0.086589 0 0 255
0.580737 -0.048923 -0.146111 76 0 153
-0.084264 0.488663 0.415207 127 127 0
-0.206589 0.032193 -0.179994 204 51 127
0.582858 -0.632134 0.232069 127 0 127
-0.176670 -0.408504 -0.117377 204 51 127
0.426427 0.428826 0.222078 127 127 0
0.286513 0.368989 -0.105817 76 153 0
0.580737 0.133343 -0.205644 76 0 153
-0.195301 -0.530136 0.420593 0 0 255
-0.660088 0.486521 0.103710 127 127 0
0.633774 -0.157621 0.301354 127 0 127
0.361724 0.368989 0.373715 76 153 0
-0.107262 0.428826 -0.062148 127 127 0
0.580737 0.237196 0.331730 76 0 153
-0.567507 -0.547780 -0.117189 153 76 0
0.211397 0.268849 -0.399366 153 76 0
-0.204290 0.428826 -0.157817 127 127 0
0.252599 0.368989 0.053795 76 153 0
0.216992 -0.338058 0.058856 153 0 76
-0.540415 0.188561 0.317690 153 76 0
-0.298013 0.342469 -0.399366 153 0 76
-0.127017 -0.520688 -0.308514 0 0 255
0.056360 -0.520688 0.219210 0 0 255
-0.206589 -0.165610 -0.369431 204 51 127
0.216992 -0.271477 -0.130937 153 0 76
0.580737 -0.442482 0.030849 76 0 153
-0.542539 -0.550607 0.419062 0 0 255
-0.497406 0.014100 -0.399366 153 0 76
-0.435677 0.488663 0.115591 127 127 0
0.700410 0.482068 0.045428 127 127 0
-0.286573 0.488663 0.119791 127 127 0
-0.176670 0.014966 -0.310373 204 51 127
-0.402224 0.339071 0.205371 76 153 0
-0.570333 0.323011 0.154257 153 76 0
0.619179 0.488663 -0.325917 127 127 0
0.580737 -0.313156 -0.005760 76 0 153
-0.429877 0.368989 0.009974 76 153 0
-0.495951 -0.159236 -0.399366 153 0 76
0.246911 -0.370761 -0.056846 153 0 76
0.053315 -0.520688 0.018875 0 0 255
-0.206589 -0.367966 0.327417 204 51 127
0.216992 0.038035 0.185791 153 0 76
-0.337823 -0.520688 -0.264614 0 0 255
0.076892 0.428826 -0.229941 127 127 0
-0.497870 0.127997 -0.399366 153 0 76
-0.469869 0.347187 0.421027 76 153 0
0.107873 0.339071 -0.032783 76 153 0
-0.595901 0.184283 -0.180490 0 255 0
0.610655 0.111355 -0.328816 76 0 153
0.643723 0.034712 0.255163 127 0 127
0.184798 0.428826 -0.089706 127 127 0
0.325373 0.189571 0.421027 153 0 76
0.129331 -0.412727 -0.369448 153 76 0
-0.368571 0.428826 0.420384 127 127 0
0.297639 0.339071 0.195969 76 153 0
0.075213 0.488663 0.202770 127 127 0
0.365117 -0.550607 0.403699 0 0 255
-0.357943 0.428826 -0.062696 127 127 0
0.482324 0.365814 -0.399366 153 0 76
0.610655 -0.172049 -0.154420 76 0 153
0.289809 -0.253034 0.400557 153 0 76
0.584991 -0.550607 0.167467 0 0 255
0.580737 -0.490690 0.340232 76 0 153
-0.375365 -0.520688 0.336095 0 0 255
-0.603401 -0.177726 0.264398 255 0 0
0.610655 0.343714 0.120501 76 0 153
-0.246287 0.368989 -0.083302 76 153 0
0.402316 -0.550607 -0.146642 0 0 255
0.580737 0.305288 -0.297934 76 0 153
-0.603401 -0.015932 -0.190605 0 255 0
0.382915 0.428826 -0.249273 127 127 0
0.610655 -0.225671 -0.319730 76 0 153
0.580737 0.163266 0.218499 76 0 153
-0.328146 0.488663 -0.252592 127 127 0
0.001743 0.476770 -0.400941 127 127 0
0.580737 -0.035482 -0.292170 76 0 153
-0.570333 0.301013 -0.120408 153 76 0
0.612555 0.428826 -0.137695 127 127 0
0.310324 -0.550607 0.019054 0 0 255
0.501462 -0.550607 -0.319277 0 0 255
0.184878 -0.550607 0.187647 0 0 255
0.449689 -0.367486 0.421027 153 0 76
0.013643 0.339071 -0.301573 76 153 0
0.449400 0.339071 -0.194138 76 153 0
-0.176670 0.248970 0.069532 204 51 127
0.024394 -0.550607 -0.372327 153 76 0
-0.123455 0.458745 0.213436 127 127 0
0.462205 0.339071 0.114720 76 153 0
-0.084045 -0.520688 -0.111288 0 0 255
-0.222801 -0.052645 -0.369448 153 0 76
0.580737 -0.125618 0.202299 76 0 153
0.182691 0.368989 0.250166 76 153 0
0.342172 0.428826 0.153937 127 127 0
-0.136942 -0.520688 0.004693 0 0 255
-0.358558 0.488663 0.246864 127 127 0
0.287462 0.288463 0.400557 153 0 76
-0.206589 -0.430614 -0.305334 204 51 127
-0.197833 0.138123 -0.399366 153 76 0
0.341296 0.270043 -0.399366 153 0 76
-0.102568 0.287515 -0.369448 153 76 0
-0.660088 0.432708 0.324135 127 127 0
0.580737 -0.456583 -0.158865 76 0 153
0.301181 0.428826 -0.015458 127 127 0
-0.563224 0.458745 -0.376667 127 127 0
0.580737 0.114764 -0.041523 76 0 153
-0.176670 -0.462876 0.332145 204 51 127
-0.216129 0.428826 0.316880 127 127 0
-0.384029 -0.520688 -0.043013 0 0 255
0.386672 -0.059890 -0.369448 153 0 76
0.391571 -0.520688 -0.031344 0 0 255
0.216992 -0.236250 0.075709 153 0 76
-0.507685 0.323276 -0.399366 153 0 76
0.610655 -0.140843 0.024286 76 0 153
0.384181 -0.520688 0.170351 0 0 255
-0.097613 0.339071 0.135308 76 153 0
0.216992 0.038495 0.017668 153 0 76
0.109439 0.051124 -0.369448 153 76 0
0.216992 0.062127 -0.226120 153 0 76
-0.206589 -0.095122 -0.138830 204 51 127
0.318167 -0.330755 -0.399366 153 0 76
-0.523134 0.488663 -0.164388 127 127 0
0.488129 -0.482595 -0.399366 153 0 76
0.580737 -0.027276 0.183104 76 0 153
0.318678 -0.464737 0.400557 153 0 76
0.117514 -0.550607 -0.305556 0 0 255
0.216992 -0.024271 0.331664 153 0 76
-0.511388 -0.550607 0.181350 0 0 255
-0.465986 0.428826 -0.323054 127 127 0
-0.271163 -0.466397 0.400557 76 0 153
-0.540415 -0.413120 -0.270896 153 76 0
-0.375739 0.339071 0.091369 76 153 0
-0.540415 -0.275830 0.305569 153 76 0
-0.176670 -0.004640 0.393590 204 51 127
-0.388075 -0.165620 -0.399366 153 0 76
-0.603401 0.337048 -0.243531 0 255 0
0.610655 -0.081694 0.376459 76 0 153
0.246911 0.091804 -0.133894 153 0 76
0.147584 0.428826 0.028900 127 127 0
-0.066588 0.368989 0.009387 76 153 0
0.532507 0.428826 -0.302445 127 127 0
0.226808 0.488663 0.246615 127 127 0
0.551091 0.339071 -0.212818 76 153 0
-0.570333 -0.087139 0.364357 153 76 0
-0.250312 -0.550607 -0.214465 0 0 255
0.495969 0.428826 0.155835 127 127 0
-0.176670 0.125457 0.118802 204 51 127
-0.369457 -0.550607 0.064647 0 0 255
0.580737 -0.284672 0.147787 76 0 153
0.187785 -0.550607 -0.127656 0 0 255
-0.469669 0.130666 0.400557 76 0 153
0.522356 0.265680 -0.369448 153 0 76
-0.176670 0.070964 -0.053859 204 51 127
-0.206589 -0.529366 0.186925 0 0 255
0.021490 0.428826 0.038963 127 127 0
0.580737 -0.346409 -0.186989 76 0 153
0.520799 0.428826 0.336378 127 127 0
0.470703 0.339071 -0.041321 76 153 0
-0.081472 -0.520688 0.308955 0 0 255
-0.206589 0.288728 0.230165 204 51 127
0.167177 0.368989 -0.344979 76 153 0
0.284524 0.052727 -0.369448 153 0 76
0.044021 0.368989 -0.158728 76 153 0
0.238722 0.458745 -0.212531 127 127 0
-0.540415 0.040998 0.060604 153 76 0
-0.043260 -0.098882 -0.369448 153 76 0
-0.332571 0.428826 -0.175146 127 127 0
0.475262 0.020995 0.421027 153 0 76
0.167226 -0.550607 0.389873 0 0 255
0.699081 0.428826 -0.305951 127 127 0
-0.206589 -0.471731 0.076059 204 51 127
-0.523096 -0.520688 0.316098 153 76 0
0.087243 0.428826 0.360629 127 127 0
-0.019622 0.428826 -0.096677 127 127 0
0.239043 0.118631 0.421027 153 0 76
0.369088 0.428826 0.056966 127 127 0
-0.570333 -0.149419 -0.100042 153 76 0
-0.540415 -0.414978 0.275948 255 0 0
0.041350 0.428826 -0.331168 127 127 0
-0.540415 -0.418177 0.046029 153 76 0
0.216992 0.221464 0.011943 153 0 76
-0.124755 0.368989 -0.205883 76 153 0
0.216992 0.337660 0.146826 153 0 76
-0.540415 0.281431 -0.317842 153 76 0
0.197839 0.488663 0.096654 127 127 0
-0.540415 0.035631 -0.096258 153 76 0
0.610655 0.282894 0.049487 76 0 153
-0.540415 -0.206407 -0.246045 0 255 0
-0.521219 -0.256037 -0.399366 153 0 76
0.225370 -0.530136 -0.045160 0 0 255
-0.160175 0.428826 0.044908 127 127 0
0.552799 0.368989 0.415302 76 153 0
-0.570333 -0.148142 0.065012 153 76 0
-0.385680 0.339071 -0.251221 76 153 0
0.208930 -0.108374 -0.399366 153 76 0
-0.174514 0.428826 -0.367723 127 127 0
0.580737 -0.166320 -0.248143 76 0 153
-0.570333 -0.095036 -0.020581 153 76 0
-0.053580 0.428826 -0.190947 127 127 0
-0.540415 0.026847 -0.269274 153 76 0
-0.449067 0.458745 -0.008334 127 127 0
-0.176670 0.016151 0.094406 204 51 127
0.510420 -0.520596 0.421027 153 0 76
-0.569597 -0.550607 -0.000217 153 76 0
0.380493 0.488663 -0.320343 127 127 0
-0.336932 -0.313627 -0.369448 153 0 76
-0.338205 -0.541496 0.421027 0 0 255
0.361394 0.428826 -0.087135 127 127 0
0.580737 0.024264 0.334479 76 0 153
-0.282300 -0.520688 0.093863 0 0 255
-0.497774 0.428826 0.333464 127 127 0
0.629289 -0.626195 -0.249774 127 127 0
-0.203269 -0.219391 0.421027 76 0 153
0.071602 -0.223881 -0.399366 153 76 0
-0.064264 0.428826 0.344102 127 127 0
-0.603401 -0.391647 -0.206562 0 255 0
-0.176670 0.016477 0.246193 204 51 127
0.254590 0.368989 -0.305988 76 153 0
-0.520799 -0.520688 -0.282981 0 0 255
-0.317676 -0.520688 0.265148 0 0 255
0.610655 0.332590 0.211161 127 0 127
0.552552 -0.550607 0.260652 0 0 255
-0.569745 0.445295 0.421027 127 127 0
-0.287179 0.368989 0.192396 76 153 0
-0.657219 0.458745 -0.074429 127 127 0
-0.155819 0.001694 -0.399366 153 76 0
-0.176670 -0.241566 0.261587 204 51 127
0.441676 0.365943 0.421027 76 153 0
-0.552517 -0.550607 -0.385612 153 0 76
-0.540415 -0.008641 -0.015043 153 76 0
0.452802 0.428826 -0.057520 127 127 0
-0.427884 0.428826 0.250617 127 127 0
0.216992 -0.200207 -0.067009 153 0 76
0.500677 -0.067058 0.421027 153 0 76
-0.544149 -0.650716 -0.180490 0 255 0
0.567304 0.086549 0.400557 153 0 76
0.201759 -0.538718 -0.399366 153 76 0
0.610655 -0.361755 0.409475 76 0 153
0.052087 0.245771 -0.369448 153 76 0
0.609856 0.488663 0.252847 127 127 0
0.216992 -0.315689 -0.241563 153 0 76
-0.540415 0.203760 0.129710 153 76 0
0.417137 0.193491 0.400557 153 0 76
-0.203123 -0.358984 -0.399366 153 0 76
-0.511712 -0.550607 -0.194748 0 0 255
-0.540415 0.148373 0.038988 153 76 0
-0.491038 -0.467706 0.421027 76 0 153
-0.603401 -0.476388 0.287975 255 0 0
0.354668 -0.550607 -0.308144 0 0 255
0.455894 0.488663 -0.373785 127 127 0
0.185978 -0.346892 -0.399366 153 76 0
-0.603401 -0.272923 -0.185100 0 255 0
0.401576 0.339071 0.179311 76 153 0
-0.073934 0.339071 -0.289402 76 153 0
-0.176670 -0.114612 -0.303702 204 51 127
0.643723 -0.499589 -0.210726 127 127 0
0.580737 0.143354 0.099866 76 0 153
0.610655 -0.300948 -0.380567 76 0 153
0.330040 0.488116 -0.400941 127 127 0
-0.547680 0.428826 -0.013840 127 127 0
0.200404 -0.520688 -0.306259 0 0 255
-0.397829 -0.333126 0.400557 76 0 153
-0.565314 -0.019866 0.421027 153 76 0
-0.540415 -0.332191 0.224208 153 76 0
0.216992 -0.192058 -0.332323 153 0 76
0.025355 0.428826 0.159423 127 127 0
0.236734 -0.135068 0.421027 153 0 76
0.610655 -0.481448 -0.367988 76 0 153
0.246911 -0.376378 0.193769 153 0 76
-0.218982 0.368989 -0.321764 76 153 0
0.561799 -0.062401 -0.399366 153 0 76
-0.402386 0.339071 -0.067264 76 153 0
-0.570333 0.136168 0.206646 255 0 0
-0.540415 0.281932 -0.022317 153 76 0
-0.308483 0.428826 0.285515 127 127 0
0.196745 0.167117 -0.399366 153 76 0
0.580737 -0.406683 -0.290112 76 0 153
0.016069 0.368989 0.296366 76 153 0
0.532317 -0.213868 0.421027 153 0 76
0.610655 -0.125782 -0.077160 76 0 153
-0.041641 -0.550607 -0.315867 0 0 255
-0.340227 0.042070 0.400557 76 0 153
-0.229342 0.368989 -0.220734 76 153 0
0.246911 -0.166964 0.026673 153 0 76
0.610655 0.012172 0.111847 76 0 153
-0.266604 -0.550607 -0.091123 0 0 255
-0.206589 -0.186963 0.339983 204 51 127
-0.540415 -0.369749 0.352187 153 76 0
0.158101 0.458745 0.197167 127 127 0
0.088704 -0.520688 -0.199010 0 0 255
0.246911 0.028948 0.266490 153 0 76
0.323996 0.428826 0.318477 127 127 0
0.246911 -0.113994 0.306896 153 0 76
-0.603401 0.099514 -0.249660 0 255 0
0.046256 -0.122977 -0.369448 153 76 0
-0.073448 -0.469132 -0.369448 153 76 0
-0.216873 -0.550607 0.039705 0 0 255
0.103716 0.428826 -0.134827 127 127 0
-0.206589 0.291302 -0.069731 204 51 127
-0.176670 -0.125229 0.180485 204 51 127
0.326397 -0.499879 -0.399366 153 0 76
0.472272 0.368989 0.263965 76 153 0
-0.479064 -0.332035 -0.399366 153 0 76
0.549802 -0.550607 0.005599 0 0 255
0.538052 -0.155956 -0.399366 153 0 76
0.216992 -0.272649 0.359750 153 0 76
0.246911 -0.066284 -0.096209 153 0 76
0.002178 0.488663 0.097224 127 127 0
-0.176670 0.146601 0.267248 204 51 127
-0.400199 0.488663 -0.171132 127 127 0
-0.124309 0.368989 0.383100 76 153 0
-0.206589 -0.211250 0.038288 204 51 127
0.429816 0.339071 0.033790 76 153 0
-0.162716 -0.547395 -0.399366 153 76 0
-0.570333 -0.125324 -0.307369 153 76 0
-0.176670 -0.347487 0.250087 204 51 127
-0.176670 0.208986 -0.255835 204 51 127
-0.116430 -0.170793 -0.369448 153 76 0
0.216992 -0.360838 0.339465 153 0 76
0.002846 -0.520688 0.392840 0 0 255
-0.516461 -0.403671 -0.369448 153 0 76
-0.206589 -0.266502 -0.173195 204 51 127
0.643723 0.194737 -0.204543 127 127 0
-0.018224 -0.550607 -0.205210 0 0 255
-0.176670 0.325463 0.106388 76 153 0
-0.081308 0.339071 -0.076036 76 153 0
-0.116322 0.368989 0.229483 76 153 0
-0.176670 -0.328906 0.409082 76 0 153
-0.603401 0.012609 0.255792 255 0 0
-0.560413 -0.098369 -0.180490 153 76 0
0.046880 -0.550607 -0.060028 0 0 255
0.559894 0.368989 -0.034592 76 153 0
0.229589 -0.007497 -0.394649 153 76 0
0.216992 -0.484768 -0.187562 153 0 76
-0.278622 0.488663 -0.030841 127 127 0
-0.540415 0.103259 0.343041 153 76 0
0.246911 -0.481595 0.227579 153 0 76
-0.303643 0.428826 -0.392633 127 127 0
0.630230 0.488663 0.140113 127 127 0
-0.458133 0.428826 0.170629 127 127 0
0.580737 -0.027398 0.043376 76 0 153
-0.570333 -0.027492 -0.326238 153 76 0
-0.206589 0.291956 0.342118 204 51 127
-0.136454 0.488663 -0.233826 127 127 0
-0.245811 -0.058869 0.421027 76 0 153
0.216992 -0.063960 0.157156 153 0 76
0.309225 0.428826 -0.344802 127 127 0
0.610655 0.323067 -0.136559 76 0 153
-0.411701 -0.034992 0.421027 76 0 153
-0.176670 -0.245756 0.127002 204 51 127
-0.231270 0.428826 0.143752 127 127 0
0.443840 0.089621 -0.399366 153 0 76
-0.389866 -0.550607 -0.322912 0 0 255
-0.603401 -0.514347 -0.247088 0 255 0
0.387345 0.339071 -0.138122 76 153 0
-0.540415 -0.282441 -0.322437 153 76 0
-0.402524 -0.550607 -0.171275 0 0 255
0.643723 -0.461780 0.262191 127 0 127
0.345633 -0.129175 -0.399366 153 0 76
0.646622 -0.626459 0.286505 127 0 127
0.294955 0.339071 -0.011474 76 153 0
0.422032 0.458745 0.420240 127 127 0
0.384987 0.345019 -0.399366 153 0 76
-0.339821 0.250576 -0.369448 153 0 76
-0.286443 -0.544493 -0.399366 153 0 76
-0.241264 0.339071 -0.001826 76 153 0
-0.464862 0.428826 -0.146853 127 127 0
0.328336 -0.013555 0.400557 153 0 76
0.610655 -0.464343 0.122134 76 0 153
-0.375620 -0.550607 0.212852 0 0 255
-0.623134 0.488663 -0.230921 127 127 0
-0.091837 -0.520688 0.141951 0 0 255
0.612100 0.428826 -0.383007 127 127 0
-0.345698 0.428826 0.083624 127 127 0
0.246911 -0.085589 0.049868 153 0 76
0.216992 0.266751 0.358366 153 0 76
0.580737 0.247175 -0.194331 127 127 0
0.580849 0.447747 0.421027 127 127 0
-0.243287 0.288464 -0.369448 153 0 76
-0.574543 0.417151 -0.249774 127 127 0
-0.282409 0.462139 0.421027 127 127 0
0.404816 0.339071 -0.271310 76 153 0
-0.469329 0.256924 -0.369448 153 0 76
-0.116878 -0.325215 -0.369448 153 76 0
0.316669 -0.520688 0.098478 0 0 255
-0.604024 0.488663 0.017144 127 127 0
0.610655 0.033534 -0.053098 76 0 153
0.074095 0.368989 0.102825 76 153 0
-0.570333 -0.437333 0.129281 153 76 0
0.284435 0.488663 0.183724 127 127 0
0.661200 0.428826 0.223871 127 127 0
0.580737 0.303344 0.283149 76 0 153
-0.274875 0.458745 -0.307355 127 127 0
0.692462 0.428826 0.331453 127 127 0
0.445626 -0.520688 0.277476 0 0 255
0.460639 -0.520688 0.022673 0 0 255
-0.540415 -0.127122 0.276607 255 0 0
-0.570333 0.114197 -0.095138 153 76 0
0.216992 0.240246 -0.073321 153 0 76
-0.454179 0.488663 -0.268887 127 127 0
0.232844 0.483391 0.421027 127 127 0
-0.176670 -0.096565 -0.047939 204 51 127
-0.083777 -0.550607 0.059150 0 0 255
-0.572128 -0.697040 -0.249774 0 255 0
0.216992 0.026164 0.401289 153 0 76
0.529321 -0.550607 -0.235649 0 0 255
-0.541575 -0.142312 0.421027 76 0 153
-0.177574 -0.530136 -0.165587 204 51 127
0.614649 0.488663 -0.217296 127 127 0
-0.107911 0.368989 -0.367307 76 153 0
0.287799 -0.399952 -0.369448 153 0 76
0.216992 0.178098 0.125723 153 0 76
0.643723 -0.007855 -0.182598 127 127 0
0.126525 -0.550607 0.037293 0 0 255
0.011302 0.488663 -0.049907 127 127 0
0.338295 0.106895 -0.399366 153 0 76
-0.603401 -0.257973 0.252611 255 0 0
0.396392 0.031419 0.400557 153 0 76
-0.176670 -0.332123 -0.020850 204 51 127
-0.009314 0.177109 -0.369448 153 76 0
-0.133344 0.233570 -0.421313 76 0 153
-0.600158 0.488663 -0.309842 127 127 0
0.085380 0.428826 0.263403 127 127 0
-0.050708 0.428826 -0.337567 127 127 0
-0.540415 0.268601 0.351999 153 76 0
-0.600373 0.225528 -0.249774 0 255 0
0.533125 -0.320868 -0.369448 153 0 76
-0.563171 -0.223055 0.421027 153 76 0
0.216992 0.210756 -0.331091 153 0 76
0.375909 0.488663 -0.183622 127 127 0
0.216992 0.235766 -0.218483 153 0 76
-0.146345 0.075933 -0.369448 153 76 0
0.283254 0.368989 0.400539 76 153 0
0.643723 0.169198 0.268255 127 0 127
-0.413753 -0.458469 0.400557 76 0 153
-0.572214 0.428826 0.063970 127 127 0
-0.509679 -0.520688 -0.047370 0 0 255
-0.479955 -0.475738 -0.369448 153 0 76
0.560507 0.488663 -0.002423 127 127 0
0.186041 0.339071 0.342151 76 153 0
0.580737 -0.362480 0.167595 76 0 153
-0.540415 0.073452 0.247747 255 0 0
-0.570333 0.151610 0.399693 153 76 0
-0.206589 -0.244105 -0.352765 204 51 127
0.216992 -0.413290 -0.322356 153 0 76
-0.488695 0.428826 0.096505 127 127 0
0.622394 0.488663 -0.072604 127 127 0
0.167828 0.428826 0.370940 127 127 0
0.162951 0.435563 -0.400941 127 127 0
-0.484722 0.339071 0.342922 76 153 0
0.643723 -0.300766 -0.206740 127 127 0
0.610655 -0.188385 0.162997 76 0 153
-0.206589 0.200941 -0.100273 204 51 127
0.275594 0.488663 -0.069178 127 127 0
-0.570333 -0.356427 -0.320457 153 76 0
0.246911 -0.216242 0.149648 153 0 76
0.311940 0.428826 -0.202145 127 127 0
-0.206589 -0.202683 0.195270 204 51 127
-0.176670 -0.247019 -0.029413 204 51 127
-0.491726 -0.550607 0.094513 0 0 255
-0.540415 -0.445305 -0.118110 153 76 0
0.466695 -0.230942 -0.369448 153 0 76
-0.561255 -0.696205 0.294722 255 0 0
-0.540415 0.303853 0.080837 153 76 0
-0.053768 0.428826 0.240273 127 127 0
-0.417106 0.428826 -0.400206 127 127 0
0.643723 0.091305 -0.182039 127 127 0
-0.238629 -0.520688 0.260721 0 0 255
0.246911 -0.031405 -0.015139 153 0 76
0.213479 0.368989 -0.143073 76 153 0
-0.509272 0.368989 0.178628 76 153 0
0.580737 -0.199442 0.353369 76 0 153
0.219389 -0.217192 0.421027 153 0 76
0.421971 0.488663 0.049778 127 127 0
0.276472 -0.270809 -0.369448 153 0 76
-0.565279 0.428826 -0.125238 127 127 0
0.054832 0.368989 -0.383201 76 153 0
0.246911 0.092110 -0.031806 153 0 76
0.691661 0.428826 -0.145962 127 127 0
-0.406643 -0.011517 -0.399366 153 0 76
0.553514 -0.550607 -0.107928 0 0 255
0.417450 -0.520688 0.352963 0 0 255
0.246911 0.216706 0.188048 153 0 76
0.610655 0.131754 -0.117250 76 0 153
-0.540415 -0.392229 -0.033575 153 76 0
0.105569 -0.520688 0.344759 0 0 255
-0.187767 -0.550607 -0.268890 0 0 255
-0.470416 0.269004 0.400557 76 0 153
-0.176670 -0.136336 -0.221574 204 51 127
-0.110751 0.488663 0.057875 127 127 0
-0.169808 0.488663 -0.317450 127 127 0
0.246911 -0.109951 -0.204157 153 0 76
-0.570857 0.458745 0.218672 127 127 0
-0.176670 0.227258 0.393010 204 51 127
0.402863 -0.180653 0.400557 153 0 76
-0.447356 -0.550607 0.344182 0 0 255
-0.570333 -0.398612 0.419478 76 0 153
0.607798 -0.550607 -0.330444 0 0 255
-0.067550 0.339071 0.308921 76 153 0
-0.640393 0.428826 0.154563 127 127 0
0.097477 0.488663 0.028094 127 127 0
0.580737 0.077546 0.238607 127 0 127
-0.565757 0.364414 0.311084 153 76 0
-0.486428 0.428826 -0.230319 127 127 0
0.276253 0.428826 0.253292 127 127 0
0.431113 0.428826 -0.316270 127 127 0
0.603249 -0.245819 0.421027 76 0 153
0.627412 0.428826 0.090494 127 127 0
-0.206589 -0.080296 0.238161 204 51 127
-0.496583 0.016508 0.421027 76 0 153
0.580737 0.204402 -0.041777 76 0 153
0.051570 -0.472797 -0.369448 153 76 0
0.091160 0.488663 -0.280283 127 127 0
0.005451 -0.550607 0.168665 0 0 255
0.220721 0.488663 -0.129802 127 127 0
0.643723 -0.206910 -0.217095 127 127 0
0.456214 0.428826 -0.223794 127 127 0
-0.206589 -0.080493 0.115079 204 51 127
-0.206589 -0.130580 0.025294 204 51 127
-0.206589 -0.324777 0.119661 204 51 127
0.313795 -0.550607 0.345733 0 0 255
0.610655 0.034152 -0.323428 76 0 153
-0.506491 0.488663 0.146741 127 127 0
-0.206589 0.002319 -0.001956 204 51 127
-0.570333 0.031503 0.131265 153 76 0
0.643723 -0.231978 0.282672 127 0 127
0.160048 0.428826 -0.220155 127 127 0
0.414917 -0.470394 -0.369448 153 0 76
0.246911 0.121064 0.281806 153 0 76
-0.603401 -0.572449 -0.181022 0 255 0
0.231436 -0.530136 0.119055 0 0 255
0.481775 0.488663 -0.137262 127 127 0
-0.155780 -0.550607 0.357512 0 0 255
0.216992 0.062482 -0.325087 153 0 76
0.612716 -0.703694 0.232069 127 0 127
0.610655 0.366699 0.034982 76 153 0
0.538043 0.368989 0.114179 76 153 0
0.216992 0.300897 0.048886 153 0 76
-0.570333 -0.253583 -0.036666 153 76 0
0.408574 0.488663 -0.098064 127 127 0
-0.417986 0.428826 0.057248 127 127 0
-0.262576 0.120283 0.400557 76 0 153
-0.330247 0.339071 -0.093930 76 153 0
0.246911 -0.220228 0.287608 153 0 76
0.194265 0.428826 0.297024 127 127 0
0.025495 0.339071 0.162017 76 153 0
-0.566199 -0.572087 0.232069 255 0 0
0.543786 -0.438829 -0.369448 153 0 76
0.580737 -0.384090 0.249075 76 0 153
0.358848 -0.520688 -0.211768 0 0 255
-0.255447 0.178619 -0.369448 153 0 76
-0.540415 -0.406385 0.199504 153 76 0
-0.190588 0.488663 -0.112209 127 127 0
0.486109 0.488663 -0.023578 127 127 0
0.610655 -0.217814 -0.396945 153 0 76
-0.323379 -0.192777 -0.369448 153 0 76
-0.409603 -0.347167 -0.369448 153 0 76
-0.290909 0.458745 0.192804 127 127 0
0.300865 -0.550607 0.255498 0 0 255
0.580737 -0.304168 0.275246 76 0 153
0.277051 -0.397237 0.400557 153 0 76
0.643723 -0.110795 0.242093 127 0 127
0.500086 0.199139 -0.399366 153 0 76
-0.206589 -0.497031 -0.014027 204 51 127
0.608603 0.368989 -0.332591 76 153 0
-0.176670 0.177237 0.044831 204 51 127
0.500824 0.314026 0.421027 153 0 76
0.470189 0.488663 0.194636 127 127 0
0.580737 0.033471 -0.200296 127 127 0
-0.234435 0.488663 0.368842 127 127 0
0.528022 0.158893 0.400557 153 0 76
0.410823 -0.358811 -0.399366 153 0 76
-0.570333 0.348222 -0.054033 153 76 0
0.587788 0.096583 -0.399366 153 0 76
0.216992 -0.391331 -0.241904 153 0 76
-0.337357 0.339071 0.351572 76 153 0
-0.570333 -0.315496 0.081773 153 76 0
-0.176670 -0.465563 0.153791 204 51 127
-0.367822 -0.410818 -0.369448 153 0 76
-0.574485 0.305814 0.232069 255 0 0
0.443964 0.308077 -0.369448 153 0 76
-0.027512 0.298808 -0.369448 153 76 0
-0.406036 0.488663 0.188322 127 127 0
0.439353 0.488663 0.265910 127 127 0
0.341252 -0.246872 -0.399366 153 0 76
0.226817 0.428826 -0.351011 127 127 0
-0.534462 -0.603302 0.299131 255 0 0
0.372656 0.488663 0.192658 127 127 0
-0.199775 0.368989 0.359323 76 153 0
-0.278195 0.428826 -0.238497 127 127 0
0.025009 0.339071 0.019718 76 153 0
-0.186734 0.079643 0.421027 204 51 127
-0.206589 0.121271 -0.206004 204 51 127
-0.204376 0.368989 0.266541 76 153 0
-0.570333 0.157068 -0.029273 153 76 0
0.216992 -0.272827 -0.310616 153 0 76
-0.068831 -0.374261 -0.399366 153 76 0
0.137015 0.252211 -0.369448 153 76 0
-0.125414 -0.550607 0.201751 0 0 255
0.580737 -0.237683 -0.134586 76 0 153
-0.139635 0.428826 0.143484 127 127 0
-0.176670 -0.121687 0.318990 204 51 127
0.610655 -0.473526 0.413555 76 0 153
-0.074062 0.214263 -0.369448 153 76 0
-0.570333 -0.150005 -0.387731 153 76 0
0.580737 0.330291 0.357966 76 153 0
-0.335831 0.368989 0.250366 76 153 0
0.555842 0.488663 -0.264535 127 127 0
0.549851 0.368989 0.265993 76 153 0
0.643723 0.372230 -0.187639 127 127 0
-0.275415 -0.240205 0.400557 76 0 153
-0.603401 -0.122172 -0.236628 0 255 0
-0.194347 0.428826 -0.280569 127 127 0
-0.389688 0.138502 -0.369448 153 0 76
-0.176670 0.144829 0.348489 204 51 127
0.548206 -0.124769 0.400557 153 0 76
0.437863 -0.550607 0.128408 0 0 255
-0.609405 -0.641930 0.267723 255 0 0
-0.201027 0.428826 -0.066120 127 127 0
-0.065478 0.488663 -0.076225 127 127 0
-0.222133 0.488663 0.049365 127 127 0
0.216992 -0.217570 -0.183083 153 0 76
-0.570333 0.139025 -0.385413 153 0 76
0.391025 0.127068 0.421027 153 0 76
0.110898 -0.550607 -0.134823 0 0 255
-0.206589 -0.361467 0.055232 204 51 127
-0.346893 0.238826 0.400557 76 0 153
0.066007 0.339071 -0.094588 76 153 0
0.246911 -0.398787 0.111108 153 0 76
0.610655 -0.249157 0.016893 76 0 153
0.691588 0.488663 0.181509 127 127 0
-0.570333 0.022145 -0.389722 153 76 0
-0.540415 -0.069527 0.228741 153 76 0
-0.570333 -0.054865 0.138545 153 76 0
0.114964 0.368989 -0.205741 76 153 0
0.490200 0.488663 0.098036 127 127 0
-0.388729 0.488663 0.381318 127 127 0
-0.176670 0.149592 -0.037611 204 51 127
0.639248 0.125238 -0.249774 127 127 0
0.066611 -0.388111 -0.399366 153 76 0
-0.018274 0.488663 0.355768 127 127 0
-0.176670 0.212888 0.235021 204 51 127
0.263360 0.428826 -0.142666 127 127 0
-0.540415 -0.177153 0.125659 153 76 0
0.156530 0.488663 -0.057554 127 127 0
-0.365828 0.428826 0.341867 127 127 0
0.463681 -0.293431 0.400557 153 0 76
-0.206589 0.319795 -0.167759 204 51 127
-0.155144 0.428826 0.275936 127 127 0
-0.206589 -0.278586 -0.254312 204 51 127
0.246911 -0.121361 0.199141 153 0 76
0.610655 0.270029 -0.355900 76 0 153
0.246911 0.187843 -0.130588 153 0 76
0.280110 -0.520688 -0.279262 0 0 255
0.542727 0.428826 0.038895 127 127 0
0.275858 0.286025 -0.369448 153 0 76
0.580737 -0.048004 -0.219204 127 127 0
-0.024045 0.339071 -0.122071 76 153 0
-0.086874 0.488663 0.150290 127 127 0
-0.413595 0.368989 0.379921 76 153 0
-0.566549 0.488663 0.105317 127 127 0
0.692278 0.428826 -0.022665 127 127 0
0.172707 0.368989 -0.047367 76 153 0
0.465617 -0.309032 -0.399366 153 0 76
-0.157177 0.368989 -0.052911 76 153 0
-0.140730 0.458745 0.377123 127 127 0
0.580737 0.260251 0.201688 76 0 153
0.005546 0.428826 -0.246217 127 127 0
-0.176670 -0.025510 -0.147577 204 51 127
-0.176670 0.054132 -0.249239 204 51 127
-0.206589 -0.474021 -0.126327 204 51 127
0.096038 0.368989 0.032152 76 153 0
-0.259701 -0.325033 -0.369448 153 0 76
0.216992 0.097590 0.139973 153 0 76
-0.540415 0.150208 -0.211897 153 76 0
-0.345277 -0.118730 0.421027 76 0 153
0.340951 -0.299686 0.421027 153 0 76
0.616475 -0.555174 -0.249774 76 0 153
-0.176670 0.037461 0.168377 204 51 127
0.514673 0.428826 -0.111022 127 127 0
-0.471765 -0.189055 0.400557 76 0 153
-0.601127 0.488663 -0.149058 127 127 0
-0.176670 -0.396264 -0.249270 204 51 127
0.580737 -0.156879 0.105629 76 0 153
-0.570333 -0.297015 0.152273 153 76 0
-0.506756 0.458745 -0.085312 127 127 0
-0.056376 -0.234057 -0.399366 153 76 0
-0.081084 0.488663 -0.312028 127 127 0
0.216992 0.031465 -0.161196 153 0 76
0.539817 0.368989 -0.353110 153 0 76
-0.344140 0.339071 0.160644 76 153 0
0.458920 0.339071 -0.112684 76 153 0
-0.277603 -0.467104 -0.369448 153 0 76
-0.498480 0.339071 0.034600 76 153 0
-0.278565 -0.395134 0.400557 76 0 153
-0.504671 0.488663 -0.329956 127 127 0
-0.495608 0.339071 -0.142363 76 153 0
0.216992 0.154816 0.363433 153 0 76
0.138454 0.116447 -0.369448 153 76 0
0.128686 0.368989 0.393286 76 153 0
0.361315 0.368989 0.018657 76 153 0
0.649879 0.488663 -0.149204 127 127 0
-0.345187 -0.550607 -0.098725 0 0 255
0.246911 -0.459156 -0.036403 153 0 76
-0.565005 -0.550607 0.134141 153 76 0
0.671726 0.488663 0.364312 127 127 0
-0.540415 -0.486033 0.014309 153 76 0
0.580737 -0.292494 0.068148 76 0 153
-0.306458 0.054878 -0.369448 153 0 76
-0.251474 0.488663 -0.174144 127 127 0
-0.540415 -0.313176 -0.171185 153 76 0
-0.641967 0.428826 -0.352356 127 127 0
-0.533114 0.428826 0.271687 127 127 0
0.246911 -0.071811 -0.340445 153 0 76
0.165021 0.428826 0.132261 127 127 0
-0.390132 0.428826 -0.126107 127 127 0
0.610655 -0.101765 -0.286404 76 0 153
-0.603401 0.206482 0.271860 255 0 0
0.483437 0.488663 0.353241 127 127 0
0.216992 -0.256469 0.224041 153 0 76
-0.224530 0.368989 0.060306 76 153 0
0.251993 0.428826 0.092427 127 127 0
0.246911 0.308951 -0.211575 153 0 76
0.027023 0.339071 0.363728 76 153 0
-0.603401 0.256422 -0.183669 0 255 0
0.220622 0.299749 0.421027 153 0 76
-0.540753 0.428826 -0.316606 127 127 0
-0.498969 -0.050005 -0.369448 153 0 76
-0.353390 -0.550607 0.134103 0 0 255
0.381451 -0.113300 0.400557 153 0 76
0.580737 -0.110111 -0.185540 76 0 153
0.682375 0.488663 -0.272448 127 127 0
-0.639993 0.488663 0.286175 127 127 0
0.532817 0.488663 0.161319 127 127 0
-0.065833 0.488663 -0.226102 127 127 0
0.323312 0.488663 0.355530 127 127 0
-0.330803 -0.339596 0.421027 76 0 153
0.216992 0.134445 0.015990 153 0 76
0.428241 0.368989 0.327494 76 153 0
0.566943 0.234535 0.400557 76 0 153
0.235175 -0.173801 -0.399366 153 0 76
0.246911 0.192559 -0.265048 153 0 76
0.489247 0.428826 -0.358465 127 127 0
-0.540415 0.221564 -0.159285 153 76 0
-0.176670 -0.455754 -0.065568 204 51 127
-0.527470 0.488663 0.376750 127 127 0
-0.206589 -0.341077 -0.140550 204 51 127
-0.549734 0.291611 0.421027 153 76 0
-0.359640 -0.082210 -0.369448 153 0 76
-0.540415 -0.266411 0.029423 153 76 0
0.580737 0.073464 -0.267966 76 0 153
0.216992 -0.093090 0.368548 153 0 76
-0.570333 -0.312329 -0.086009 153 76 0
0.610655 -0.466180 -0.030659 76 0 153
-0.206589 -0.216494 -0.094879 204 51 127
-0.003742 0.029731 -0.399366 153 76 0
-0.570333 0.295462 -0.385433 153 76 0
0.639768 -0.183856 0.232069 127 0 127
0.445789 -0.520688 -0.100742 0 0 255
0.656554 0.488663 -0.011272 127 127 0
-0.369068 0.368989 -0.315907 76 153 0
0.246911 0.339600 0.243846 76 153 0
0.595905 -0.503589 0.232069 76 0 153
0.610655 -0.391608 -0.006320 76 0 153
0.158461 0.339071 0.184720 76 153 0
0.246911 0.183066 0.061875 153 0 76
0.662922 -0.680395 -0.181880 127 127 0
-0.143295 0.428826 -0.124130 127 127 0
0.235308 0.428826 -0.275979 127 127 0
-0.176670 -0.481786 -0.268770 204 51 127
-0.103680 0.339071 0.060169 76 153 0
-0.176670 0.308835 -0.338534 204 51 127
0.129588 -0.520688 0.217532 0 0 255
0.643163 -0.031937 -0.249774 127 127 0
-0.540415 -0.192191 -0.160260 153 76 0
0.574438 0.400665 -0.190413 127 127 0
0.520068 0.488663 -0.335691 127 127 0
0.610655 -0.395713 -0.143423 76 0 153
-0.603401 -0.421670 0.245054 255 0 0
0.332357 -0.011374 -0.369448 153 0 76
0.349754 0.428826 0.225302 127 127 0
-0.388416 0.488663 -0.037652 127 127 0
-0.342240 0.428826 -0.284888 127 127 0
0.216992 -0.057215 -0.243261 153 0 76
-0.176670 0.068598 -0.123247 204 51 127
-0.063549 0.488663 0.274052 127 127 0
0.435991 -0.550607 0.412745 0 0 255
0.574713 -0.602339 0.301152 127 0 127
-0.054548 0.428826 0.170889 127 127 0
-0.593146 -0.699814 0.232069 255 0 0
0.086064 0.488663 -0.185227 127 127 0
-0.453125 0.368989 -0.219864 76 153 0
0.581528 0.428826 -0.066881 127 127 0
0.246911 -0.484436 -0.342572 153 0 76
-0.255415 0.314061 0.421027 76 0 153
0.233072 -0.550607 0.241809 0 0 255
0.236653 0.428826 0.023002 127 127 0
-0.159274 0.368989 -0.286296 76 153 0
-0.455371 -0.520688 -0.307078 0 0 255
0.438006 0.428826 0.092442 127 127 0
-0.559494 0.368989 0.103844 76 153 0
-0.189621 0.488663 0.186323 127 127 0
0.027060 -0.269955 -0.369448 153 76 0
0.319623 -0.082595 0.400557 153 0 76
-0.206589 -0.400935 -0.180236 204 51 127
-0.540415 -0.020148 -0.162709 153 76 0
0.101988 -0.095580 -0.399366 153 76 0
0.216992 -0.469499 0.086917 153 0 76
-0.096140 0.368989 -0.139595 76 153 0
0.337420 0.488663 0.024609 127 127 0
-0.074572 -0.044489 -0.399366 153 76 0
0.561363 0.246523 -0.422986 76 0 153
-0.476511 0.368989 -0.355382 76 153 0
-0.122914 -0.550607 -0.056874 0 0 255
0.631185 0.428826 0.362681 127 127 0
-0.389169 -0.540163 -0.399366 153 0 76
-0.593708 0.428826 0.351992 127 127 0
0.109765 0.428826 -0.338009 127 127 0
0.643723 0.104965 0.236309 127 0 127
-0.540415 -0.204683 0.269783 153 76 0
0.394992 0.236548 -0.369448 153 0 76
0.691926 0.428826 -0.237182 127 127 0
0.478984 -0.426152 0.400557 153 0 76
-0.206589 -0.371052 0.180723 204 51 127
-0.176670 0.152936 0.190229 204 51 127
0.515692 0.428826 0.225190 127 127 0
-0.331283 0.368989 0.045600 76 153 0
0.577659 0.428826 0.284606 127 127 0
-0.294740 0.488663 0.051759 127 127 0
0.141500 -0.222703 -0.369448 153 76 0
0.580737 0.123829 0.026274 76 0 153
-0.206589 -0.045860 -0.293970 204 51 127
0.580737 0.005330 0.243211 76 0 153
0.574650 0.488663 -0.139506 127 127 0
-0.206589 0.257539 -0.293537 204 51 127
0.246911 -0.141029 -0.083596 153 0 76
-0.362063 0.488663 0.112313 127 127 0
0.643723 0.283178 0.300316 127 0 127
-0.608841 -0.639415 -0.199191 0 255 0
-0.404712 -0.471735 -0.399366 153 0 76
0.216992 -0.342007 -0.116241 153 0 76
0.476257 -0.154030 -0.369448 153 0 76
0.610655 0.179369 0.149518 76 0 153
0.186003 -0.520688 0.328645 0 0 255
0.610655 -0.047935 -0.354016 76 0 153
0.399776 -0.550607 0.236796 0 0 255
-0.008138 0.428826 -0.023630 127 127 0
0.312780 0.368989 0.277977 76 153 0
-0.038278 0.080457 -0.369448 153 76 0
-0.134622 -0.471595 -0.399366 153 76 0
0.580737 0.213987 0.263982 127 0 127
-0.322229 -0.550607 -0.330961 0 0 255
0.054786 0.339071 0.249059 76 153 0
-0.045009 0.488663 -0.153633 127 127 0
-0.599981 -0.252121 -0.249774 0 255 0
-0.426760 0.488663 -0.340432 127 127 0
-0.224603 -0.416994 -0.369448 153 0 76
0.320138 0.368989 -0.398948 153 0 76
0.272709 0.368989 0.124091 76 153 0
0.049426 0.488663 0.359888 127 127 0
0.075711 -0.550607 0.280865 0 0 255
0.589906 -0.671658 0.287285 127 0 127
-0.344454 -0.252094 -0.399366 153 0 76
-0.540415 0.150491 -0.143892 153 76 0
-0.406584 0.144454 0.421027 76 0 153
0.173168 -0.520688 -0.001638 0 0 255
-0.176670 -0.145506 -0.103297 204 51 127
0.580737 -0.480708 -0.091908 76 0 153
-0.442770 -0.550607 0.194396 0 0 255
-0.487277 0.187762 -0.369448 153 0 76
0.580737 0.179355 -0.335008 76 0 153
0.610450 -0.550607 0.330028 0 0 255
-0.318708 0.339071 -0.234484 76 153 0
0.607160 0.346953 -0.249774 76 0 153
-0.454980 -0.203883 -0.369448 153 0 76
-0.261320 0.488663 0.305467 127 127 0
-0.603401 0.366201 -0.182610 0 255 0
-0.540415 0.100047 -0.273927 153 76 0
0.278823 0.368989 -0.190314 76 153 0
-0.025859 -0.550607 -0.093571 0 0 255
0.580737 -0.132913 0.342036 76 0 153
0.049371 0.368989 -0.244399 76 153 0
-0.508024 0.488663 -0.021471 127 127 0
-0.324336 0.428826 0.004934 127 127 0
-0.015765 -0.520688 0.029864 0 0 255
0.229696 0.488663 -0.320319 127 127 0
0.069202 0.137798 -0.369448 153 76 0
-0.350994 -0.186262 0.400557 76 0 153
0.328334 0.368989 -0.268849 76 153 0
-0.078670 0.428826 -0.398699 127 127 0
0.453415 -0.030615 -0.399366 153 0 76
-0.247841 0.104671 -0.369448 153 0 76
0.643723 -0.015863 0.299376 127 0 127
-0.361613 0.488663 -0.115259 127 127 0
-0.060707 0.428826 -0.257806 127 127 0
-0.434802 0.428826 0.356784 127 127 0
-0.276463 0.428826 -0.079951 127 127 0
-0.110905 0.458745 -0.002257 127 127 0
0.678738 -0.709319 0.242270 127 0 127
-0.176670 0.287730 0.170177 204 51 127
-0.427464 0.428826 -0.067529 127 127 0
0.465921 -0.222789 0.421027 153 0 76
0.594909 -0.456084 -0.225168 76 0 153
0.273794 0.127386 -0.369448 153 0 76
-0.540415 0.138805 0.272891 255 0 0
0.185616 0.488663 -0.240167 127 127 0
0.554961 -0.550607 0.367685 0 0 255
-0.206589 0.274706 0.015524 204 51 127
-0.206589 0.086926 0.270455 204 51 127
-0.186872 0.428826 0.215905 127 127 0
-0.570333 -0.270179 0.365031 153 76 0
0.580737 -0.332348 0.344050 76 0 153
-0.469252 0.066683 -0.369448 153 0 76
-0.048190 0.428826 0.037066 127 127 0
0.580737 0.158891 0.359176 76 0 153
-0.198934 -0.291180 -0.399366 153 0 76
0.358625 0.428826 -0.153758 127 127 0
0.216992 -0.346794 0.245474 153 0 76
0.542927 0.368989 -0.275088 76 153 0
0.044518 -0.520688 0.123768 0 0 255
0.129024 0.488663 0.357594 127 127 0
-0.603401 0.022620 -0.248149 0 255 0
0.442730 -0.520688 -0.335925 0 0 255
0.216992 0.305980 -0.332324 153 0 76
0.246911 -0.521080 -0.134906 153 0 76
-0.206589 -0.371890 -0.070689 204 51 127
0.610911 -0.711221 -0.241034 127 127 0
-0.206589 -0.501440 -0.333367 204 51 127
-0.271005 -0.530136 0.419255 0 0 255
-0.540415 -0.409601 -0.177695 153 76 0
0.608559 0.368989 -0.088648 76 0 153
-0.570333 -0.182284 0.187922 153 76 0
-0.494041 0.428826 -0.385411 127 127 0
-0.570333 -0.543039 0.356993 0 0 255
0.580737 0.145479 -0.273487 76 0 153
-0.206589 -0.300144 0.285560 204 51 127
0.216992 0.042153 0.085153 153 0 76
0.189555 0.428826 -0.023609 127 127 0
-0.411033 0.271119 -0.399366 153 0 76
-0.352699 -0.476845 0.421027 76 0 153
0.216992 -0.384736 0.000569 153 0 76
-0.540415 -0.480863 0.266107 153 76 0
-0.245643 -0.520688 -0.152433 0 0 255
-0.605121 0.488663 0.161063 127 127 0
0.030300 0.488663 -0.232553 127 127 0
0.021356 0.458745 0.234147 127 127 0
0.530780 0.062979 -0.399366 153 0 76
0.344173 0.488663 -0.248176 127 127 0
-0.290506 0.428826 0.357930 127 127 0
0.580737 0.277916 -0.097358 76 0 153
-0.570333 0.262464 0.124874 153 76 0
0.437118 0.368989 -0.344892 76 153 0
-0.554587 0.253576 0.269464 255 0 0
0.580737 -0.162915 0.261628 76 0 153
-0.401405 0.368989 0.146605 76 153 0
0.138232 0.488663 0.139263 127 127 0
-0.177458 0.485666 -0.400941 127 127 0
0.089714 0.339071 -0.335456 76 153 0
0.216992 0.204065 0.245330 153 0 76
0.343671 -0.520688 -0.145357 0 0 255
0.246911 0.267076 0.286577 153 0 76
0.246911 -0.439749 0.331994 153 0 76
-0.077863 -0.520688 -0.256838 0 0 255
0.527686 0.428826 -0.029086 127 127 0
-0.446743 -0.550607 -0.054975 0 0 255
-0.309167 0.488663 -0.358313 127 127 0
-0.426027 -0.096145 0.400557 76 0 153
-0.570333 0.040412 0.366843 153 76 0
0.052188 0.458745 -0.106068 127 127 0
0.479507 0.428826 0.404025 127 127 0
0.030783 0.300607 -0.399366 153 76 0
0.216992 0.323348 -0.095419 76 153 0
0.114968 0.368989 0.250113 76 153 0
0.162032 0.025315 -0.399366 153 76 0
0.228477 -0.530136 -0.240192 0 0 255
-0.180789 0.488663 -0.185705 127 127 0
-0.041030 0.428826 0.405256 127 127 0
-0.038284 -0.550607 0.351730 0 0 255
0.643723 -0.397012 0.237144 127 0 127
0.367130 0.488663 0.089137 127 127 0
0.414142 0.428826 0.157918 127 127 0
0.580737 -0.404456 0.116706 76 0 153
-0.206589 0.078279 -0.315964 204 51 127
0.580737 -0.265645 -0.277647 76 0 153
-0.513182 0.488663 0.310002 127 127 0
-0.438390 0.339071 0.274250 76 153 0
0.190475 0.428826 -0.154946 127 127 0
-0.243301 0.339071 0.150628 76 153 0
0.531772 -0.520688 0.136505 0 0 255
-0.206589 -0.073393 0.368542 204 51 127
0.527950 -0.369105 0.400557 153 0 76
0.216992 -0.085621 -0.150729 153 0 76
0.647780 0.428826 -0.076577 127 127 0
-0.540415 -0.132904 -0.249207 153 76 0
-0.635656 -0.711221 -0.248930 0 255 0
0.243338 0.368989 -0.057102 76 153 0
-0.651916 0.488663 0.356252 127 127 0
0.372047 -0.550607 -0.085684 0 0 255
0.271581 0.430945 -0.400941 127 127 0
-0.206589 0.193214 0.100231 204 51 127
0.439369 0.488663 -0.197485 127 127 0
0.178633 0.368989 0.017314 76 153 0
-0.191114 0.488663 0.319029 127 127 0
-0.570333 0.193337 -0.349934 153 76 0
0.502804 0.368989 -0.172676 76 153 0
-0.319909 0.191453 -0.399366 153 0 76
0.279724 0.249316 -0.422703 76 0 153
0.213741 0.428826 0.225529 127 127 0
0.373447 0.458745 0.288629 127 127 0
-0.365964 0.368989 -0.191580 76 153 0
-0.170622 0.488663 0.256629 127 127 0
0.246911 -0.300960 -0.180880 153 0 76
0.152210 -0.300458 -0.369448 153 76 0
-0.538933 0.339071 -0.251341 153 76 0
0.341377 0.200394 -0.369448 153 0 76
0.278519 0.025745 0.421027 153 0 76
0.610655 -0.026488 -0.085533 76 0 153
-0.638096 0.428826 0.072118 127 127 0
0.414619 -0.117432 -0.399366 153 0 76
0.316657 -0.520688 -0.038801 0 0 255
0.298254 0.134082 0.400557 153 0 76
0.076659 0.428826 -0.393480 127 127 0
